# .PCD v0.7 - Point Cloud Data file format
VERSION 0.7
FIELDS x y z rgb
SIZE 4 4 4 4
TYPE F F F U
COUNT 1 1 1 1
WIDTH 132
HEIGHT 1
VIEWPOINT 0 0 0 1 0 0 0
POINTS 132
DATA ascii
0.32879639 0.032632574 0.5185284 4278190080
0.31590152 0.03118608 0.51362759 4278190080
0.30352187 0.029769747 0.51045913 4278190080
0.30085248 0.029467035 0.50962639 4278190080
0.29308838 0.028586315 0.50721908 4278190080
0.28780529 0.027992161 0.50529569 4278190080
0.27832499 0.026932931 0.50145733 4278190080
0.2706528 0.026051523 0.49969643 4278190080
0.26848301 0.025800161 0.4993147 4278190080
0.25809854 0.024577282 0.49859238 4278190080
0.23300286 0.021690413 0.4930433 4278190080
0.21322182 0.019447511 0.48685679 4278190080
0.15338114 0.014415272 0.37067595 4278190080
0.15274672 0.014401058 0.36726809 4278190080
0.15153575 0.014264476 0.36684904 4278190080
0.14963301 0.014033655 0.36709213 4278190080
0.14613019 0.013607556 0.36760515 4278190080
0.13804704 0.012563314 0.37217879 4278190080
0.11429642 0.0095673446 0.38159686 4278190080
0.11417438 0.0095521454 0.38163444 4278190080
0.061057065 0.003125058 0.38750243 4278190080
0.056982059 0.0026270333 0.38822824 4278190080
0.052680064 0.0021027518 0.38891193 4278190080
0.025174573 -0.0011829562 0.38959295 4278190080
0.019220874 -0.0019131568 0.39079642 4278190080
-0.0037413121 -0.0046745483 0.39238858 4278190080
-0.010059708 -0.0054387441 0.39306897 4278190080
-0.035678789 -0.008466538 0.39189231 4278190080
-0.044748016 -0.0095228739 0.39061317 4278190080
-0.050252646 -0.010173425 0.39035952 4278190080
-0.052557256 -0.010447381 0.39034185 4278190080
-0.10941444 -0.016901264 0.37295169 4278190080
-0.11245647 -0.017236976 0.37148789 4278190080
-0.11553051 -0.017600365 0.37135145 4278190080
-0.11714597 -0.017802225 0.37188533 4278190080
-0.1213121 -0.018321129 0.37316895 4278190080
-0.12127443 -0.018339666 0.37444898 4278190080
-0.2099601 -0.03130741 0.50862807 4278190080
-0.23893782 -0.034709163 0.50601923 4278190080
-0.25015905 -0.036052871 0.50647843 4278190080
-0.26971155 -0.038437936 0.50970882 4278190080
-0.27056485 -0.038544543 0.50999004 4278190080
-0.27255297 -0.038824186 0.51238275 4278190080
-0.273177 -0.038914111 0.51325345 4278190080
-0.27099937 -0.0386893 0.51516348 4278190080
-0.25936043 -0.037376437 0.51918352 4278190080
-0.25382888 -0.036753058 0.52112615 4278190080
-0.24934116 -0.036234185 0.52197242 4278190080
-0.23998697 -0.035143603 0.52323276 4278190080
-0.23000585 -0.033989903 0.52513254 4278190080
-0.22516483 -0.033383675 0.52345932 4278190080
-0.21619192 -0.032262139 0.52047569 4278190080
-0.20066495 -0.030319406 0.51520145 4278190080
-0.19167702 -0.029214112 0.51322049 4278190080
-0.19085918 -0.029034285 0.50863349 4278190080
-0.088436976 -0.015091259 0.41112575 4278190080
-0.07769037 -0.013782157 0.40945002 4278190080
-0.072456762 -0.013147477 0.40879276 4278190080
-0.069371119 -0.012775278 0.40851626 4278190080
-0.036710963 -0.0089011434 0.40922728 4278190080
-0.033237509 -0.0085007865 0.40995151 4278190080
0.0035301524 -0.0041813045 0.41308081 4278190080
0.0041416683 -0.0041098092 0.4131521 4278190080
0.035677087 -0.00020416733 0.40466845 4278190080
0.064558566 0.0032571291 0.40332964 4278190080
0.092121303 0.0065153963 0.40455326 4278190080
0.09553007 0.0069258418 0.40428835 4278190080
0.20417166 0.018330861 0.48905754 4278190080
0.2215877 0.020200895 0.50032657 4278190080
0.23782404 0.022092327 0.50259924 4278190080
0.24664475 0.023118511 0.5039103 4278190080
0.24888058 0.023377111 0.50432682 4278190080
0.27283832 0.026151909 0.50857723 4278190080
0.2860975 0.027642585 0.51343209 4278190080
0.28895241 0.027960571 0.51464301 4278190080
0.30648842 0.029964067 0.5192852 4278190080
0.32503924 0.03202147 0.52764511 4278190080
0.3340762 0.033044305 0.53057337 4278190080
0.33936018 0.033654321 0.53162086 4278190080
0.34312496 0.034119245 0.53068274 4278190080
0.34357855 0.034235142 0.52723992 4278190080
0.33594388 0.033415094 0.52231562 4278190080
0.33452269 0.033262614 0.52138954 4278190080
-0.0029395947 0.0025198611 -0.0023371466 4278190080
-0.0020980153 0.0026210679 -0.0023955032 4278190080
-0.0013113089 0.0027156651 -0.0024494678 4278190080
-0.00017540925 0.0028522536 -0.0025275163 4278190080
-0.00011615106 0.0028593796 -0.002531603 4278190080
6.2179053e-05 0.002880824 -0.0025439076 4278190080
0.00018811063 0.002895962 -0.0025522858 4278190080
0.0010056773 0.0029942703 -0.0026083775 4278190080
0.0014403141 0.0030465417 -0.0026386641 4278190080
0.0015895758 0.0030644741 -0.0026480444 4278190080
0.0020245812 0.003116702 -0.0026734695 4278190080
0.0020598187 0.0031122735 -0.0021940544 4278190080
0.0020696218 0.0031108202 -0.0020483769 4278190080
0.002094002 0.0031071305 -0.0016818792 4278190080
0.0021568879 0.0030989822 -0.00081267208 4278190080
0.0021800476 0.0030959148 -0.00048886612 4278190080
0.0022202812 0.0030903125 8.8889152e-05 4278190080
0.0022229857 0.0030899122 0.00012903288 4278190080
0.0022661157 0.0030840042 0.00074295327 4278190080
0.0022942519 0.0030800682 0.0011479966 4278190080
0.0023276287 0.0030752511 0.0016366988 4278190080
0.0023491147 0.0030724278 0.0019358695 4278190080
0.0023656609 0.0030687796 0.0022482164 4278190080
0.0023679447 0.0030677025 0.0023232214 4278190080
0.0023661142 0.0030656909 0.0024229549 4278190080
0.0020432342 0.003026743 0.0024519525 4278190080
0.0018864631 0.0030078692 0.0024639852 4278190080
0.0014260688 0.0029525277 0.0024945252 4278190080
0.0012848063 0.0029355465 0.0025039613 4278190080
0.00039713632 0.0028287694 0.002567023 4278190080
-0.00016499264 0.002761167 0.0026061051 4278190080
-0.00025764108 0.0027500314 0.0026121922 4278190080
-0.00093647302 0.0026684445 0.0026565716 4278190080
-0.0019297462 0.0025489524 0.0027278401 4278190080
-0.0026175289 0.0024662453 0.0027752817 4278190080
-0.0026893758 0.0024578858 0.0027646571 4278190080
-0.0027116963 0.0024606087 0.0024655424 4278190080
-0.0027534126 0.0024662693 0.0018747486 4278190080
-0.0027953635 0.0024721269 0.0012714453 4278190080
-0.0028138433 0.0024746908 0.0010065958 4278190080
-0.0028339073 0.00247757 0.00071373954 4278190080
-0.0028680044 0.00248213 0.00023455918 4278190080
-0.0028794718 0.0024837018 7.1272254e-05 4278190080
-0.0029022635 0.0024870606 -0.00026630983 4278190080
-0.0029655865 0.0024956784 -0.0011645146 4278190080
-0.0029996813 0.0025001836 -0.0016406439 4278190080
-0.0030031588 0.0025006502 -0.001689598 4278190080
-0.003042334 0.002506336 -0.0022649802 4278190080
-0.0030433906 0.0025071485 -0.0023171566 4278190080
