# .PCD v0.7 - Point Cloud Data file format
VERSION 0.7
FIELDS x y z rgb
SIZE 4 4 4 4
TYPE F F F U
COUNT 1 1 1 1
WIDTH 1176
HEIGHT 1
VIEWPOINT 0 0 0 1 0 0 0
POINTS 1176
DATA ascii
0.33914939 -0.13493693 0.53000003 4281676854
0.34084773 -0.13493693 0.53000003 4281676854
0.34254608 -0.13493693 0.53000003 4281742647
0.34424445 -0.13493693 0.53000003 4281413682
0.34659553 -0.13519152 0.53100002 4281545268
0.34829706 -0.13519152 0.53100002 4281545268
0.35065776 -0.13544612 0.53200001 4281282096
0.35236248 -0.13544612 0.53200001 4281084717
0.35473284 -0.13570073 0.53300005 4280887595
0.35710955 -0.13595532 0.53400004 4280690216
0.35949266 -0.13620992 0.53500003 4280690216
-0 -0 0 4294102974
-0 -0 0 4294102974
-0 -0 0 4294102974
-0 -0 0 4294102974
-0 -0 0 4294102974
-0 -0 0 4294102974
-0 -0 0 4294102974
-0 -0 0 4294102974
-0 -0 0 4294102974
-0 -0 0 4294102974
-0 -0 0 4294102974
-0 -0 0 4294102974
-0 -0 0 4294102974
-0 -0 0 4294102974
-0 -0 0 4294102974
-0 -0 0 4294102974
-0 -0 0 4294102974
-0 -0 0 4294102974
-0 -0 0 4294102974
-0 -0 0 4294102974
-0 -0 0 4294102974
-0 -0 0 4294102974
-0 -0 0 4294102974
-0 -0 0 4294102974
-0 -0 0 4294102974
-0 -0 0 4294102974
-0 -0 0 4294102974
-0 -0 0 4294102974
-0 -0 0 4294102974
-0 -0 0 4294102974
-0 -0 0 4294102974
-0 -0 0 4294102974
-0 -0 0 4294102974
-0 -0 0 4294102974
-0 -0 0 4294102974
-0 -0 0 4294102974
-0 -0 0 4294102974
-0 -0 0 4294102974
-0 -0 0 4294102974
-0 -0 0 4294102974
-0 -0 0 4294102974
-0 -0 0 4294102974
-0 -0 0 4294102974
-0 -0 0 4294102974
-0 -0 0 4294102974
-0 -0 0 4294102974
-0.26967114 -0.12645094 0.50300002 4282729791
-0.26859221 -0.12670232 0.50400001 4282729791
-0.26697713 -0.12670232 0.50400001 4282927170
-0.26588863 -0.12695372 0.505 4282927170
-0.26427037 -0.12695372 0.505 4282927170
-0.26317227 -0.12720512 0.50600004 4282927170
-0.26206771 -0.12745652 0.50700003 4282927170
-0.26044306 -0.12745652 0.50700003 4282795584
-0.2593289 -0.1277079 0.50800002 4282927170
-0.25770104 -0.1277079 0.50800002 4282992963
-0 -0 0 4294102974
-0 -0 0 4294102974
-0 -0 0 4294102974
-0 -0 0 4294102974
-0 -0 0 4294102974
-0 -0 0 4294102974
-0 -0 0 4294102974
-0.24612315 -0.12846209 0.51100004 4283453514
-0.24448568 -0.12846209 0.51100004 4283585100
-0.2428482 -0.12846209 0.51100004 4283519307
-0.24121073 -0.12846209 0.51100004 4283650893
-0.23957327 -0.12846209 0.51100004 4283519307
-0.2379358 -0.12846209 0.51100004 4283650893
-0.23629834 -0.12846209 0.51100004 4283650893
-0.23420164 -0.12821069 0.51000005 4283650893
-0.23256738 -0.12821069 0.51000005 4283650893
-0.23093311 -0.12821069 0.51000005 4283650893
-0.22929886 -0.12821069 0.51000005 4283782479
-0.22721817 -0.1279593 0.509 4283716686
-0.2255871 -0.1279593 0.509 4283650893
-0.22395605 -0.1279593 0.509 4283782479
-0.2218882 -0.1277079 0.50800002 4283782481
-0.21982677 -0.12745652 0.50700003 4283782481
-0.21820213 -0.12745652 0.50700003 4283782481
-0.21615028 -0.12720512 0.50600004 4283914067
-0.21452884 -0.12720512 0.50600004 4283979860
-0.21248661 -0.12695372 0.505 4283979860
-0.21086837 -0.12695372 0.505 4284045653
-0.20925014 -0.12695372 0.505 4284111446
-0.20763189 -0.12695372 0.505 4284111446
-0.2056057 -0.12670232 0.50400001 4284177239
-0.20399067 -0.12670232 0.50400001 4284177239
-0.20237564 -0.12670232 0.50400001 4284177239
-0.20076059 -0.12670232 0.50400001 4284243032
-0.19914554 -0.12670232 0.50400001 4284374618
-0.19713859 -0.12645094 0.50300002 4284243032
-0.19552675 -0.12645094 0.50300002 4284243032
-0.19391492 -0.12645094 0.50300002 4284506204
-0.19230308 -0.12645094 0.50300002 4284440411
-0.19107035 -0.12670232 0.50400001 4284440411
-0.18907942 -0.12645094 0.50300002 4284571997
-0.18746759 -0.12645094 0.50300002 4284637790
-0.18585576 -0.12645094 0.50300002 4284637790
-0.1842439 -0.12645094 0.50300002 4284637790
-0.18263207 -0.12645094 0.50300002 4284571997
-0.18102024 -0.12645094 0.50300002 4284835169
-0.17976509 -0.12670232 0.50400001 4284637790
-0.17815006 -0.12670232 0.50400001 4284703583
-0.17688526 -0.12695372 0.505 4284900962
-0.17526703 -0.12695372 0.505 4284900962
-0.17364879 -0.12695372 0.505 4284900962
-0.17237122 -0.12720512 0.50600004 4284966755
-0.17074977 -0.12720512 0.50600004 4284966755
-0.16946256 -0.12745652 0.50700003 4284901219
-0.1678379 -0.12745652 0.50700003 4284967012
-0.16621326 -0.12745652 0.50700003 4284901219
-0.16458862 -0.12745652 0.50700003 4284967012
-0.16296396 -0.12745652 0.50700003 4285032805
-0.1613393 -0.12745652 0.50700003 4285032805
-0.15971465 -0.12745652 0.50700003 4285032805
-0.15777819 -0.12720512 0.50600004 4285032805
-0.15615675 -0.12720512 0.50600004 4285098598
-0.15422988 -0.12695372 0.505 4285098598
-0.15261163 -0.12695372 0.505 4285098598
-0.1506944 -0.12670232 0.50400001 4285295977
-0.14907935 -0.12670232 0.50400001 4285295977
-0.14746432 -0.12670232 0.50400001 4285295977
-0.14584929 -0.12670232 0.50400001 4285493356
-0.14394806 -0.12645094 0.50300002 4285493356
-0.14233623 -0.12645094 0.50300002 4285493356
-0.14072441 -0.12645094 0.50300002 4285361770
-0.13911256 -0.12645094 0.50300002 4285427563
-0.13750073 -0.12645094 0.50300002 4285361770
-0.13588889 -0.12645094 0.50300002 4285361770
-0.13427706 -0.12645094 0.50300002 4285493356
-0.13266523 -0.12645094 0.50300002 4285361770
-0.1310534 -0.12645094 0.50300002 4285493356
-0.12944157 -0.12645094 0.50300002 4285559149
-0.12782972 -0.12645094 0.50300002 4285427563
-0.12621789 -0.12645094 0.50300002 4285493356
-0.12460606 -0.12645094 0.50300002 4285493356
-0.12299423 -0.12645094 0.50300002 4285493356
-0.12138239 -0.12645094 0.50300002 4285559149
-0.11977056 -0.12645094 0.50300002 4285559149
-0.11815872 -0.12645094 0.50300002 4285756528
-0.11654689 -0.12645094 0.50300002 4285888114
-0.11493506 -0.12645094 0.50300002 4285888114
-0.11332322 -0.12645094 0.50300002 4285953907
-0.1114893 -0.12619954 0.50200003 4285822321
-0.10988067 -0.12619954 0.50200003 4285822321
-0.10827205 -0.12619954 0.50200003 4285756528
-0.10666341 -0.12619954 0.50200003 4285822321
-0.10505478 -0.12619954 0.50200003 4285756528
-0.10344616 -0.12619954 0.50200003 4285822321
-0.10183752 -0.12619954 0.50200003 4285690735
-0.10022889 -0.12619954 0.50200003 4285888114
-0.098620258 -0.12619954 0.50200003 4285888114
-0.097204879 -0.12645094 0.50300002 4285690735
-0.09559305 -0.12645094 0.50300002 4285756528
-0.093981214 -0.12645094 0.50300002 4285888114
-0.09255302 -0.12670232 0.50400001 4285690735
-0.090937972 -0.12670232 0.50400001 4285559149
-0.08932294 -0.12670232 0.50400001 4285756528
-0.0877079 -0.12670232 0.50400001 4285690735
-0.08609286 -0.12670232 0.50400001 4285756528
-0.084477827 -0.12670232 0.50400001 4285756528
-0.082862779 -0.12670232 0.50400001 4285690735
-0.081247747 -0.12670232 0.50400001 4285559149
-0.07947471 -0.12645094 0.50300002 4285690735
-0.077862874 -0.12645094 0.50300002 4285822321
-0.076251045 -0.12645094 0.50300002 4285888114
-0.074639201 -0.12645094 0.50300002 4285888114
-0.07288219 -0.12619954 0.50200003 4286019700
-0.071273565 -0.12619954 0.50200003 4285888114
-0.069526158 -0.12594816 0.50100005 4285888114
-0.067920737 -0.12594816 0.50100005 4285888114
-0.066182934 -0.12569675 0.5 4285822321
-0.064580716 -0.12569675 0.5 4285888114
-0.062978499 -0.12569675 0.5 4285953907
-0.061376274 -0.12569675 0.5 4285823091
-0.059774052 -0.12569675 0.5 4285823091
-0.058171835 -0.12569675 0.5 4285691505
-0.056682758 -0.12594816 0.50100005 4285757298
-0.055187266 -0.12619954 0.50200003 4285757298
-0.053578634 -0.12619954 0.50200003 4285757298
-0.052073531 -0.12645094 0.50300002 4285625712
-0.050461698 -0.12645094 0.50300002 4285823091
-0.048849866 -0.12645094 0.50300002 4285888884
-0.04723803 -0.12645094 0.50300002 4285888884
-0.0457169 -0.12670232 0.50400001 4285823091
-0.044014361 -0.12645094 0.50300002 4285757298
-0.042402528 -0.12645094 0.50300002 4285757298
-0.0407096 -0.12619954 0.50200003 4285823091
-0.039100971 -0.12619954 0.50200003 4285823091
-0.037417654 -0.12594816 0.50100005 4285757298
-0.035812229 -0.12594816 0.50100005 4285691505
-0.034206804 -0.12594816 0.50100005 4285757298
-0.032601383 -0.12594816 0.50100005 4285691505
-0.030934084 -0.12569675 0.5 4285691505
-0.029331863 -0.12569675 0.5 4285691505
-0.027729642 -0.12569675 0.5 4285691505
-0.026127422 -0.12569675 0.5 4285691505
-0.024525201 -0.12569675 0.5 4285625712
-0.022922982 -0.12569675 0.5 4285625712
-0.02132076 -0.12569675 0.5 4285625712
-0.019757979 -0.12594816 0.50100005 4285559919
-0.018152554 -0.12594816 0.50100005 4285559919
-0.016547129 -0.12594816 0.50100005 4285625712
-0.014971526 -0.12619954 0.50200003 4285691505
-0.013362898 -0.12619954 0.50200003 4285691252
-0.011777681 -0.12645094 0.50300002 4285625459
-0.010165848 -0.12645094 0.50300002 4285625459
-0.0085710194 -0.12670232 0.50400001 4285559666
-0.0069559813 -0.12670232 0.50400001 4285559666
-0.0053409431 -0.12670232 0.50400001 4285559666
-0.0037332971 -0.12695372 0.505 4285625459
-0.0021150543 -0.12695372 0.505 4285559666
-0.00049681158 -0.12695372 0.505 4285559666
0.0011214311 -0.12695372 0.505 4285559666
0.0027396739 -0.12695372 0.505 4285625459
0.0043492871 -0.12670232 0.50400001 4285757045
0.0059643253 -0.12670232 0.50400001 4285559666
0.0075793639 -0.12670232 0.50400001 4285362287
0.009194403 -0.12670232 0.50400001 4285625459
0.010809441 -0.12670232 0.50400001 4285362287
0.012424479 -0.12670232 0.50400001 4285362287
0.014039517 -0.12670232 0.50400001 4285362287
0.015654556 -0.12670232 0.50400001 4285428080
0.017269595 -0.12670232 0.50400001 4285428080
0.018884633 -0.12670232 0.50400001 4285428080
0.020499671 -0.12670232 0.50400001 4285362287
0.022114709 -0.12670232 0.50400001 4285362287
0.023729747 -0.12670232 0.50400001 4285428080
0.025344785 -0.12670232 0.50400001 4285362287
0.026959825 -0.12670232 0.50400001 4285428080
0.028518166 -0.12645094 0.50300002 4285296494
0.030189902 -0.12670232 0.50400001 4285296494
0.031804942 -0.12670232 0.50400001 4285428080
0.033419978 -0.12670232 0.50400001 4285230701
0.035035014 -0.12670232 0.50400001 4285230701
0.036722772 -0.12695372 0.505 4285362287
0.038341016 -0.12695372 0.505 4285296494
0.040038388 -0.12720512 0.50600004 4285296494
0.041659836 -0.12720512 0.50600004 4285362287
0.043366816 -0.12745652 0.50700003 4285362287
0.044991467 -0.12745652 0.50700003 4285296494
0.046616122 -0.12745652 0.50700003 4285362287
0.048240773 -0.12745652 0.50700003 4285362287
0.049865425 -0.12745652 0.50700003 4285296496
0.051591635 -0.1277079 0.50800002 4285230703
0.053114727 -0.12745652 0.50700003 4285099887
0.054739378 -0.12745652 0.50700003 4284968301
0.056364033 -0.12745652 0.50700003 4285165680
0.057988685 -0.12745652 0.50700003 4285165680
0.059613336 -0.12745652 0.50700003 4285165680
0.061117202 -0.12720512 0.50600004 4285231473
0.062614657 -0.12695372 0.505 4285231473
0.064105712 -0.12670232 0.50400001 4285231473
0.065590352 -0.12645094 0.50300002 4285165680
0.067202181 -0.12645094 0.50300002 4285165680
0.068814017 -0.12645094 0.50300002 4285165680
0.070285842 -0.12619954 0.50200003 4285034094
0.071894474 -0.12619954 0.50200003 4285099887
0.073356681 -0.12594816 0.50100005 4285165680
0.074962102 -0.12594816 0.50100005 4285099887
0.076567531 -0.12594816 0.50100005 4285165680
0.078016914 -0.12569675 0.5 4285099887
0.079619139 -0.12569675 0.5 4285099887
0.081221357 -0.12569675 0.5 4285165680
0.082823575 -0.12569675 0.5 4285164910
0.0844258 -0.12569675 0.5 4285230703
0.086028017 -0.12569675 0.5 4285164910
0.087630242 -0.12569675 0.5 4285230703
0.08923246 -0.12569675 0.5 4285164910
0.090834677 -0.12569675 0.5 4285230703
0.092436902 -0.12569675 0.5 4285362287
0.09403912 -0.12569675 0.5 4285164908
0.095641345 -0.12569675 0.5 4285296494
0.097243562 -0.12569675 0.5 4285164908
0.09884578 -0.12569675 0.5 4285296494
0.10064891 -0.12594816 0.50100005 4285296494
0.10225433 -0.12594816 0.50100005 4285296494
0.10406706 -0.12619954 0.50200003 4285230701
0.10567569 -0.12619954 0.50200003 4285230701
0.10728431 -0.12619954 0.50200003 4285296494
0.10910986 -0.12645094 0.50300002 4285230701
0.1107217 -0.12645094 0.50300002 4285296494
0.11233354 -0.12645094 0.50300002 4285164908
0.11394536 -0.12645094 0.50300002 4284967529
0.1155572 -0.12645094 0.50300002 4284967531
0.11716904 -0.12645094 0.50300002 4285230703
0.11878087 -0.12645094 0.50300002 4285099117
0.1203927 -0.12645094 0.50300002 4285230703
0.12200454 -0.12645094 0.50300002 4285164910
0.12361638 -0.12645094 0.50300002 4284967531
0.12522821 -0.12645094 0.50300002 4284967531
0.12684004 -0.12645094 0.50300002 4285099117
0.12845187 -0.12645094 0.50300002 4285296496
0.13006371 -0.12645094 0.50300002 4285099117
0.13167554 -0.12645094 0.50300002 4285229933
0.13328737 -0.12645094 0.50300002 4285229933
0.13489921 -0.12645094 0.50300002 4285295726
0.13651104 -0.12645094 0.50300002 4285229933
0.13812287 -0.12645094 0.50300002 4285032554
0.1400125 -0.12670232 0.50400001 4285229933
0.14162754 -0.12670232 0.50400001 4285032554
0.1432426 -0.12670232 0.50400001 4285032554
0.14457022 -0.12645094 0.50300002 4284966761
0.14618205 -0.12645094 0.50300002 4285032554
0.14779387 -0.12645094 0.50300002 4284900968
0.14910869 -0.12619954 0.50200003 4285032554
0.15071732 -0.12619954 0.50200003 4284966761
0.15232594 -0.12619954 0.50200003 4284900968
0.15362793 -0.12594816 0.50100005 4284966761
0.15523335 -0.12594816 0.50100005 4285032554
0.15652573 -0.12569675 0.5 4284900968
0.15812795 -0.12569675 0.5 4284900968
0.15973017 -0.12569675 0.5 4284900968
0.16133238 -0.12569675 0.5 4284900966
0.1629346 -0.12569675 0.5 4284900966
0.16420777 -0.12544535 0.49900001 4284966759
0.16580677 -0.12544535 0.49900001 4284835173
0.16774127 -0.12569675 0.5 4284835173
0.16934349 -0.12569675 0.5 4284572001
0.1709457 -0.12569675 0.5 4284572001
0.17254794 -0.12569675 0.5 4284637794
0.17415015 -0.12569675 0.5 4284506208
0.17610389 -0.12594816 0.50100005 4284572001
0.17770931 -0.12594816 0.50100005 4284440415
0.17967264 -0.12619954 0.50200003 4284374622
0.18128128 -0.12619954 0.50200003 4284308831
0.18325423 -0.12645094 0.50300002 4284374624
0.18486606 -0.12645094 0.50300002 4284374624
0.18684863 -0.12670232 0.50400001 4284045659
0.18846366 -0.12670232 0.50400001 4284045659
0.19007871 -0.12670232 0.50400001 4284045659
0.19169374 -0.12670232 0.50400001 4284111452
0.19330877 -0.12670232 0.50400001 4283979866
0.19492382 -0.12670232 0.50400001 4283914073
0.19653885 -0.12670232 0.50400001 4283914073
0.1981539 -0.12670232 0.50400001 4283848280
0.19976893 -0.12670232 0.50400001 4283848280
0.2009844 -0.12645094 0.50300002 4283716694
0.20259623 -0.12645094 0.50300002 4283716694
0.20380209 -0.12619954 0.50200003 4283848280
0.20541073 -0.12619954 0.50200003 4283585108
0.20660697 -0.12594816 0.50100005 4283519315
0.20821239 -0.12594816 0.50100005 4283387729
0.20981781 -0.12594816 0.50100005 4283453522
0.21142323 -0.12594816 0.50100005 4283453522
0.21302867 -0.12594816 0.50100005 4283387729
0.21463411 -0.12594816 0.50100005 4283256143
0.21667112 -0.12619954 0.50200003 4283256143
0.21827976 -0.12619954 0.50200003 4283124557
0.22032641 -0.12645094 0.50300002 4283124557
0.22193825 -0.12645094 0.50300002 4283124557
0.22399451 -0.12670232 0.50400001 4282992971
0.22560954 -0.12670232 0.50400001 4282992971
0.22767541 -0.12695372 0.505 4282927178
0.22929366 -0.12695372 0.505 4282861385
0.23091191 -0.12695372 0.505 4282861385
0.23253015 -0.12695372 0.505 4283058764
0.23414838 -0.12695372 0.505 4283058764
0.23623352 -0.12720512 0.50600004 4282533190
0.23785496 -0.12720512 0.50600004 4282467397
0.23947641 -0.12720512 0.50600004 4282533190
0.24109787 -0.12720512 0.50600004 4282533190
0.24319899 -0.12745652 0.50700003 4282401604
0.24482363 -0.12745652 0.50700003 4282401604
0.24644828 -0.12745652 0.50700003 4282401604
0.24807295 -0.12745652 0.50700003 4282335811
0.25019008 -0.1277079 0.50800002 4282270018
0.25181794 -0.1277079 0.50800002 4282270018
0.25394469 -0.1279593 0.509 4282270018
0.25557575 -0.1279593 0.509 4282335811
0.25771216 -0.12821069 0.51000005 4282270018
0.25934643 -0.12821069 0.51000005 4282072639
0.2609807 -0.12821069 0.51000005 4282072639
0.26312989 -0.12846209 0.51100004 4282072639
0.26476735 -0.12846209 0.51100004 4282072639
0.26640484 -0.12846209 0.51100004 4282006846
0.26804227 -0.12846209 0.51100004 4282006846
0.26967975 -0.12846209 0.51100004 4282006846
0.27131724 -0.12846209 0.51100004 4281809467
0.27348885 -0.12871347 0.51200002 4281809467
0.27512953 -0.12871347 0.51200002 4281875260
0.27677017 -0.12871347 0.51200002 4281809467
0.27841088 -0.12871347 0.51200002 4281941053
0.28005156 -0.12871347 0.51200002 4281612088
0.28169221 -0.12871347 0.51200002 4281677881
0.28333288 -0.12871347 0.51200002 4281875260
0.28553015 -0.12896487 0.51300001 4281809467
0.28717402 -0.12896487 0.51300001 4281809467
0.28938091 -0.12921625 0.514 4281612088
0.29102796 -0.12921625 0.514 4281480502
0.29324451 -0.12946767 0.51500005 4281480502
0.29489478 -0.12946767 0.51500005 4281480504
0.29712087 -0.12971905 0.51600003 4281546297
0.29935339 -0.12997045 0.51700002 4281414711
0.30159229 -0.13022183 0.51800001 4281414711
0.30383766 -0.13047324 0.51900005 4281348918
0.306678 -0.13097602 0.52100003 4281151539
0.30953118 -0.1314788 0.523 4281217332
0.31180218 -0.1317302 0.52400005 4281151539
0.31467777 -0.13223298 0.52600002 4281085746
0.31696478 -0.13248438 0.52700001 4281085746
0.31865349 -0.13248438 0.52700001 4281085746
0.32095009 -0.13273576 0.528 4281216562
0.32264206 -0.13273576 0.528 4281150769
0.32433397 -0.13273576 0.528 4281150769
0.32602593 -0.13273576 0.528 4281150769
0.32771787 -0.13273576 0.528 4281216562
0.32940981 -0.13273576 0.528 4281216562
0.33172891 -0.13298717 0.52900004 4281216562
0.33342403 -0.13298717 0.52900004 4281282355
0.33511919 -0.13298717 0.52900004 4281545527
0.33681434 -0.13298717 0.52900004 4281545527
0.33850947 -0.13298717 0.52900004 4281742647
0.34020463 -0.13298717 0.52900004 4281611061
0.34189978 -0.13298717 0.52900004 4281742647
0.34359494 -0.13298717 0.52900004 4281676854
0.3459428 -0.13323855 0.53000003 4281611059
0.34829706 -0.13348995 0.53100002 4281545266
0.34999862 -0.13348995 0.53100002 4281347887
0.35236248 -0.13374135 0.53200001 4281216301
0.35406727 -0.13374135 0.53200001 4281019181
0.35644081 -0.13399275 0.53300005 4280756009
0.35882071 -0.13424414 0.53400004 4280624423
-0 -0 0 4294102974
-0 -0 0 4294102974
-0 -0 0 4294102974
-0 -0 0 4294102974
-0 -0 0 4294102974
-0 -0 0 4294102974
-0 -0 0 4294102974
-0 -0 0 4294102974
-0 -0 0 4294102974
-0 -0 0 4294102974
-0 -0 0 4294102974
-0 -0 0 4294102974
-0 -0 0 4294102974
-0 -0 0 4294102974
-0 -0 0 4294102974
-0 -0 0 4294102974
-0 -0 0 4294102974
-0 -0 0 4294102974
-0 -0 0 4294102974
-0 -0 0 4294102974
-0 -0 0 4294102974
-0 -0 0 4294102974
-0 -0 0 4294102974
-0 -0 0 4294102974
-0 -0 0 4294102974
-0 -0 0 4294102974
-0 -0 0 4294102974
-0 -0 0 4294102974
-0 -0 0 4294102974
-0 -0 0 4294102974
-0 -0 0 4294102974
-0 -0 0 4294102974
-0 -0 0 4294102974
-0 -0 0 4294102974
-0 -0 0 4294102974
-0 -0 0 4294102974
-0 -0 0 4294102974
-0 -0 0 4294102974
-0 -0 0 4294102974
-0 -0 0 4294102974
-0 -0 0 4294102974
-0 -0 0 4294102974
-0 -0 0 4294102974
-0 -0 0 4294102974
-0 -0 0 4294102974
-0 -0 0 4294102974
-0 -0 0 4294102974
-0.26805928 -0.1248391 0.50300002 4282729791
-0.26644742 -0.1248391 0.50300002 4282927170
-0.26536211 -0.12508729 0.50400001 4282795584
-0.26374707 -0.12508729 0.50400001 4282927170
-0.26265216 -0.12533547 0.505 4282729791
-0.26155081 -0.12558368 0.50600004 4283058756
-0.26044306 -0.12583186 0.50700003 4282795584
-0.25881842 -0.12583186 0.50700003 4282927170
-0 -0 0 4294102974
-0 -0 0 4294102974
-0 -0 0 4294102974
-0 -0 0 4294102974
-0 -0 0 4294102974
-0 -0 0 4294102974
-0 -0 0 4294102974
-0 -0 0 4294102974
-0.2456415 -0.12657644 0.51000005 4283387978
-0.24400724 -0.12657644 0.51000005 4283453771
-0.24237296 -0.12657644 0.51000005 4283453771
-0.2407387 -0.12657644 0.51000005 4283519564
-0.23910445 -0.12657644 0.51000005 4283585357
-0.2379358 -0.12682462 0.51100004 4283585100
-0 -0 0 4294102974
-0 -0 0 4294102974
-0 -0 0 4294102974
-0 -0 0 4294102974
-0.22884923 -0.12632823 0.509 4283650893
-0.22721817 -0.12632823 0.509 4283585100
-0.22514391 -0.12608005 0.50800002 4283716686
-0.22351606 -0.12608005 0.50800002 4283782479
-0.2218882 -0.12608005 0.50800002 4283782481
-0.21982677 -0.12583186 0.50700003 4283716688
-0.21820213 -0.12583186 0.50700003 4283914067
-0.21615028 -0.12558368 0.50600004 4284045653
-0.21452884 -0.12558368 0.50600004 4283979860
-0.2129074 -0.12558368 0.50600004 4284111446
-0.21086837 -0.12533547 0.505 4283979860
-0.20925014 -0.12533547 0.505 4283979860
-0.20763189 -0.12533547 0.505 4284111446
-0.20601363 -0.12533547 0.505 4284111446
-0.20399067 -0.12508729 0.50400001 4284177239
-0.20237564 -0.12508729 0.50400001 4284243032
-0.20076059 -0.12508729 0.50400001 4284243032
-0.19914554 -0.12508729 0.50400001 4284374618
-0.19753051 -0.12508729 0.50400001 4284243032
-0.19591548 -0.12508729 0.50400001 4284243032
-0.19430044 -0.12508729 0.50400001 4284506204
-0.19268538 -0.12508729 0.50400001 4284506204
-0.19107035 -0.12508729 0.50400001 4284571997
-0.18945532 -0.12508729 0.50400001 4284703583
-0.18784028 -0.12508729 0.50400001 4284571997
-0.18622525 -0.12508729 0.50400001 4284637790
-0.18461019 -0.12508729 0.50400001 4284637790
-0.18299516 -0.12508729 0.50400001 4284637790
-0.18138012 -0.12508729 0.50400001 4284835169
-0.17976509 -0.12508729 0.50400001 4284637790
-0.17815006 -0.12508729 0.50400001 4284835169
-0.17688526 -0.12533547 0.505 4284966755
-0.17526703 -0.12533547 0.505 4284966755
-0.17364879 -0.12533547 0.505 4284900962
-0.17237122 -0.12558368 0.50600004 4284835426
-0.17108722 -0.12583186 0.50700003 4284901219
-0.16946256 -0.12583186 0.50700003 4284967010
-0.1678379 -0.12583186 0.50700003 4285098596
-0.16621326 -0.12583186 0.50700003 4285098596
-0.16458862 -0.12583186 0.50700003 4285098596
-0.16296396 -0.12583186 0.50700003 4285230182
-0.1613393 -0.12583186 0.50700003 4285230182
-0.15971465 -0.12583186 0.50700003 4285098596
-0.15777819 -0.12558368 0.50600004 4284967010
-0.15615675 -0.12558368 0.50600004 4285098596
-0.15422988 -0.12533547 0.505 4285098596
-0.15261163 -0.12533547 0.505 4285230182
-0.1506944 -0.12508729 0.50400001 4285295975
-0.14907935 -0.12508729 0.50400001 4285295975
-0.14717174 -0.1248391 0.50300002 4285427563
-0.14555991 -0.1248391 0.50300002 4285493356
-0.14394806 -0.1248391 0.50300002 4285493356
-0.14233623 -0.1248391 0.50300002 4285427563
-0.14072441 -0.1248391 0.50300002 4285493356
-0.13911256 -0.1248391 0.50300002 4285559149
-0.13750073 -0.1248391 0.50300002 4285493356
-0.13588889 -0.1248391 0.50300002 4285559149
-0.13427706 -0.1248391 0.50300002 4285559149
-0.13266523 -0.1248391 0.50300002 4285559149
-0.1310534 -0.1248391 0.50300002 4285559149
-0.12944157 -0.1248391 0.50300002 4285559149
-0.12782972 -0.1248391 0.50300002 4285493356
-0.12621789 -0.1248391 0.50300002 4285493356
-0.12460606 -0.1248391 0.50300002 4285559149
-0.12299423 -0.1248391 0.50300002 4285756528
-0.12138239 -0.1248391 0.50300002 4285559919
-0.11977056 -0.1248391 0.50300002 4285625712
-0.11815872 -0.1248391 0.50300002 4285691505
-0.11654689 -0.1248391 0.50300002 4285757298
-0.11493506 -0.1248391 0.50300002 4285757298
-0.11332322 -0.1248391 0.50300002 4285757298
-0.11171139 -0.1248391 0.50300002 4285757298
-0.10988067 -0.12459092 0.50200003 4285625712
-0.10827205 -0.12459092 0.50200003 4285559919
-0.10666341 -0.12459092 0.50200003 4285428333
-0.10505478 -0.12459092 0.50200003 4285559919
-0.10344616 -0.12459092 0.50200003 4285757298
-0.10183752 -0.12459092 0.50200003 4285691505
-0.10022889 -0.12459092 0.50200003 4285625712
-0.098620258 -0.12459092 0.50200003 4285757298
-0.097204879 -0.1248391 0.50300002 4285625712
-0.09559305 -0.1248391 0.50300002 4285625712
-0.093981214 -0.1248391 0.50300002 4285625712
-0.092369385 -0.1248391 0.50300002 4285625712
-0.090937972 -0.12508729 0.50400001 4285559919
-0.08932294 -0.12508729 0.50400001 4285625712
-0.0877079 -0.12508729 0.50400001 4285625712
-0.08609286 -0.12508729 0.50400001 4285691505
-0.084477827 -0.12508729 0.50400001 4285625712
-0.082862779 -0.12508729 0.50400001 4285756528
-0.081086539 -0.1248391 0.50300002 4285756528
-0.07947471 -0.1248391 0.50300002 4285756528
-0.077862874 -0.1248391 0.50300002 4285822321
-0.076251045 -0.1248391 0.50300002 4285888114
-0.074490815 -0.12459092 0.50200003 4286151286
-0.07288219 -0.12459092 0.50200003 4286151286
-0.071131587 -0.12434273 0.50100005 4285953907
-0.069526158 -0.12434273 0.50100005 4285888114
-0.067920737 -0.12434273 0.50100005 4285888114
-0.066182934 -0.12409453 0.5 4286019700
-0.064580716 -0.12409453 0.5 4286019700
-0.062978499 -0.12409453 0.5 4285953907
-0.061376274 -0.12409453 0.5 4285822838
-0.059774052 -0.12409453 0.5 4285822838
-0.058171835 -0.12409453 0.5 4286020217
-0.056682758 -0.12434273 0.50100005 4285888631
-0.055077333 -0.12434273 0.50100005 4285822838
-0.053578634 -0.12459092 0.50200003 4285691252
-0.051970005 -0.12459092 0.50200003 4285757045
-0.05036138 -0.12459092 0.50200003 4285888631
-0.048752747 -0.12459092 0.50200003 4286020217
-0.04723803 -0.1248391 0.50300002 4285888631
-0.045626193 -0.1248391 0.50300002 4285757298
-0.043926857 -0.12459092 0.50200003 4285888884
-0.042318232 -0.12459092 0.50200003 4285823091
-0.0407096 -0.12459092 0.50200003 4285823091
-0.039023083 -0.12434273 0.50100005 4285757298
-0.037417654 -0.12434273 0.50100005 4285757298
-0.035812229 -0.12434273 0.50100005 4285888884
-0.034138523 -0.12409453 0.5 4285888884
-0.032536305 -0.12409453 0.5 4285823091
-0.030934084 -0.12409453 0.5 4285691505
-0.029331863 -0.12409453 0.5 4285625712
-0.027729642 -0.12409453 0.5 4285757298
-0.026127422 -0.12409453 0.5 4285691505
-0.024525201 -0.12409453 0.5 4285757298
-0.022922982 -0.12409453 0.5 4285757298
-0.02132076 -0.12409453 0.5 4285757298
-0.019757979 -0.12434273 0.50100005 4285625712
-0.018152554 -0.12434273 0.50100005 4285625712
-0.016547129 -0.12434273 0.50100005 4285625459
-0.014971526 -0.12459092 0.50200003 4285757045
-0.013389516 -0.1248391 0.50300002 4285691252
-0.011777681 -0.1248391 0.50300002 4285691252
-0.010165848 -0.1248391 0.50300002 4285625459
-0.0085710194 -0.12508729 0.50400001 4285625459
-0.0069559813 -0.12508729 0.50400001 4285625459
-0.0053409431 -0.12508729 0.50400001 4285625459
-0.0037259045 -0.12508729 0.50400001 4285428080
-0.0021108661 -0.12508729 0.50400001 4285559666
-0.00049582782 -0.12508729 0.50400001 4285559666
0.0011192105 -0.12508729 0.50400001 4285559666
0.002734249 -0.12508729 0.50400001 4285428080
0.0043492871 -0.12508729 0.50400001 4285691252
0.0059643253 -0.12508729 0.50400001 4285625459
0.0075793639 -0.12508729 0.50400001 4285559666
0.009194403 -0.12508729 0.50400001 4285428080
0.010809441 -0.12508729 0.50400001 4285362287
0.012424479 -0.12508729 0.50400001 4285362287
0.014011662 -0.1248391 0.50300002 4285296494
0.015654556 -0.12508729 0.50400001 4285559666
0.017235329 -0.1248391 0.50300002 4285362287
0.018847164 -0.1248391 0.50300002 4285362287
0.020458996 -0.1248391 0.50300002 4285559666
0.022070833 -0.1248391 0.50300002 4285362287
0.023682665 -0.1248391 0.50300002 4285428080
0.025294499 -0.1248391 0.50300002 4285428080
0.026906334 -0.1248391 0.50300002 4285428080
0.028518166 -0.1248391 0.50300002 4285428080
0.030130001 -0.1248391 0.50300002 4285559666
0.031741835 -0.1248391 0.50300002 4285362287
0.033353671 -0.1248391 0.50300002 4285428080
0.035035014 -0.12508729 0.50400001 4285428080
0.036650054 -0.12508729 0.50400001 4285296494
0.038341016 -0.12533547 0.505 4285296494
0.039959259 -0.12533547 0.505 4285362287
0.041659836 -0.12558368 0.50600004 4285362287
0.043281283 -0.12558368 0.50600004 4285230701
0.044991467 -0.12583186 0.50700003 4285296494
0.046616122 -0.12583186 0.50700003 4285296494
0.048240773 -0.12583186 0.50700003 4285362287
0.049865425 -0.12583186 0.50700003 4285362287
0.05149008 -0.12583186 0.50700003 4285362287
0.053114727 -0.12583186 0.50700003 4285428080
0.054739378 -0.12583186 0.50700003 4285164908
0.056364033 -0.12583186 0.50700003 4285231471
0.057988685 -0.12583186 0.50700003 4285034092
0.059613336 -0.12583186 0.50700003 4285099885
0.061117202 -0.12558368 0.50600004 4285165678
0.06273865 -0.12558368 0.50600004 4285165678
0.064232901 -0.12533547 0.505 4285165680
0.065720744 -0.12508729 0.50400001 4285099887
0.067335784 -0.12508729 0.50400001 4285099887
0.068814017 -0.1248391 0.50300002 4285165680
0.070425853 -0.1248391 0.50300002 4285099887
0.072037689 -0.1248391 0.50300002 4285231473
0.073503099 -0.12459092 0.50200003 4285034094
0.075111724 -0.12459092 0.50200003 4285231473
0.076567531 -0.12434273 0.50100005 4285297266
0.078172952 -0.12434273 0.50100005 4285034094
0.079778388 -0.12434273 0.50100005 4285165680
0.081221357 -0.12409453 0.5 4285165680
0.082823575 -0.12409453 0.5 4285296496
0.0844258 -0.12409453 0.5 4285296496
0.086028017 -0.12409453 0.5 4285230701
0.087630242 -0.12409453 0.5 4285362287
0.08923246 -0.12409453 0.5 4285296494
0.090834677 -0.12409453 0.5 4285164908
0.092436902 -0.12409453 0.5 4285164908
0.09403912 -0.12409453 0.5 4285164908
0.095641345 -0.12409453 0.5 4285230701
0.097243562 -0.12409453 0.5 4285164908
0.09884578 -0.12409453 0.5 4285230701
0.10064891 -0.12434273 0.50100005 4285230701
0.10225433 -0.12434273 0.50100005 4285362287
0.10385976 -0.12434273 0.50100005 4285296494
0.10567569 -0.12459092 0.50200003 4285362287
0.10728431 -0.12459092 0.50200003 4285230701
0.10889295 -0.12459092 0.50200003 4285230701
0.1107217 -0.1248391 0.50300002 4285230701
0.11233354 -0.1248391 0.50300002 4285164908
0.11394536 -0.1248391 0.50300002 4285230701
0.1155572 -0.1248391 0.50300002 4285099117
0.11716904 -0.1248391 0.50300002 4285164910
0.11878087 -0.1248391 0.50300002 4285230703
0.1203927 -0.1248391 0.50300002 4285296496
0.12200454 -0.1248391 0.50300002 4285099117
0.12361638 -0.1248391 0.50300002 4285230703
0.12522821 -0.1248391 0.50300002 4285230703
0.12684004 -0.1248391 0.50300002 4285164910
0.12845187 -0.1248391 0.50300002 4285099117
0.13006371 -0.1248391 0.50300002 4285164910
0.13167554 -0.1248391 0.50300002 4285295726
0.13328737 -0.1248391 0.50300002 4285295726
0.13489921 -0.1248391 0.50300002 4285295726
0.13651104 -0.1248391 0.50300002 4285295726
0.13812287 -0.1248391 0.50300002 4285295726
0.1397347 -0.1248391 0.50300002 4285098347
0.14134654 -0.1248391 0.50300002 4285229933
0.14295839 -0.1248391 0.50300002 4285032554
0.14457022 -0.1248391 0.50300002 4285032554
0.14618205 -0.1248391 0.50300002 4285032554
0.14779387 -0.1248391 0.50300002 4285098347
0.14910869 -0.12459092 0.50200003 4285098347
0.15071732 -0.12459092 0.50200003 4285032554
0.15232594 -0.12459092 0.50200003 4285098347
0.15362793 -0.12434273 0.50100005 4284900968
0.15523335 -0.12434273 0.50100005 4284966761
0.1568388 -0.12434273 0.50100005 4284966761
0.15812795 -0.12409453 0.5 4284966761
0.15973017 -0.12409453 0.5 4284966761
0.16133238 -0.12409453 0.5 4284966759
0.1629346 -0.12409453 0.5 4284835173
0.16453683 -0.12409453 0.5 4284900966
0.16613905 -0.12409453 0.5 4284835173
0.16774127 -0.12409453 0.5 4284769380
0.16934349 -0.12409453 0.5 4284572001
0.1709457 -0.12409453 0.5 4284506208
0.17254794 -0.12409453 0.5 4284440415
0.17415015 -0.12409453 0.5 4284506208
0.17610389 -0.12434273 0.50100005 4284506208
0.17770931 -0.12434273 0.50100005 4284374622
0.17967264 -0.12459092 0.50200003 4284440415
0.18128128 -0.12459092 0.50200003 4284374622
0.18325423 -0.1248391 0.50300002 4284440415
0.18486606 -0.1248391 0.50300002 4284308831
0.18684863 -0.12508729 0.50400001 4284177245
0.18846366 -0.12508729 0.50400001 4284045659
0.19007871 -0.12508729 0.50400001 4284111452
0.19207408 -0.12533547 0.505 4284308831
0.19369233 -0.12533547 0.505 4284111452
0.19492382 -0.12508729 0.50400001 4283914073
0.19653885 -0.12508729 0.50400001 4283979866
0.1981539 -0.12508729 0.50400001 4283979866
0.19976893 -0.12508729 0.50400001 4283979866
0.20138396 -0.12508729 0.50400001 4283716694
0.20259623 -0.1248391 0.50300002 4283848280
0.20380209 -0.12459092 0.50200003 4283716694
0.20541073 -0.12459092 0.50200003 4283454292
0.20701936 -0.12459092 0.50200003 4283388499
0.20821239 -0.12434273 0.50100005 4283454292
0.20981781 -0.12434273 0.50100005 4283454292
0.21142323 -0.12434273 0.50100005 4283322706
0.21302867 -0.12434273 0.50100005 4283322706
0.21463411 -0.12434273 0.50100005 4283322706
0.21667112 -0.12459092 0.50200003 4283125327
0.21827976 -0.12459092 0.50200003 4283124557
0.22032641 -0.1248391 0.50300002 4283190350
0.22193825 -0.1248391 0.50300002 4282992971
0.22399451 -0.12508729 0.50400001 4283124557
0.22560954 -0.12508729 0.50400001 4283058764
0.22722457 -0.12508729 0.50400001 4282927178
0.22929366 -0.12533547 0.505 4282861385
0.23091191 -0.12533547 0.505 4282861385
0.23253015 -0.12533547 0.505 4283058764
0.23414838 -0.12533547 0.505 4282861385
0.23576663 -0.12533547 0.505 4282598213
0.23738487 -0.12533547 0.505 4282598213
0.23947641 -0.12558368 0.50600004 4282467397
0.24109787 -0.12558368 0.50600004 4282467397
0.24271931 -0.12558368 0.50600004 4282401604
0.24482363 -0.12583186 0.50700003 4282270018
0.24644828 -0.12583186 0.50700003 4282335811
0.24807295 -0.12583186 0.50700003 4282138432
0.2496976 -0.12583186 0.50700003 4282270018
0.25181794 -0.12608005 0.50800002 4282270018
0.2534458 -0.12608005 0.50800002 4282138432
0.25557575 -0.12632823 0.509 4282138432
0.25720683 -0.12632823 0.509 4282072639
0.25934643 -0.12657644 0.51000005 4282138432
0.2609807 -0.12657644 0.51000005 4282138432
0.26261497 -0.12657644 0.51000005 4282138432
0.26424921 -0.12657644 0.51000005 4282006846
0.26640484 -0.12682462 0.51100004 4282006846
0.26804227 -0.12682462 0.51100004 4282072639
0.26967975 -0.12682462 0.51100004 4281875260
0.27131724 -0.12682462 0.51100004 4282006846
0.2729547 -0.12682462 0.51100004 4281875260
0.27459216 -0.12682462 0.51100004 4282006846
0.27622962 -0.12682462 0.51100004 4281941053
0.27841088 -0.12707281 0.51200002 4281809467
0.28005156 -0.12707281 0.51200002 4281677881
0.28169221 -0.12707281 0.51200002 4281677881
0.28388628 -0.12732099 0.51300001 4281677881
0.28553015 -0.12732099 0.51300001 4281677881
0.28717402 -0.12732099 0.51300001 4281612088
0.28938091 -0.12756918 0.514 4281480502
0.29102796 -0.12756918 0.514 4281414709
0.29324451 -0.12781738 0.51500005 4281546295
0.29546738 -0.12806557 0.51600003 4281480502
0.29712087 -0.12806557 0.51600003 4281546295
0.29935339 -0.12831375 0.51700002 4281414711
0.30159229 -0.12856193 0.51800001 4281414711
0.30383766 -0.12881014 0.51900005 4281348918
0.30608937 -0.12905832 0.52000004 4281217332
0.30893934 -0.12955469 0.52200001 4281348918
0.31180218 -0.13005108 0.52400005 4281085746
0.31407952 -0.13029927 0.52500004 4281217332
0.31636333 -0.13054745 0.52600002 4281151539
0.31804883 -0.13054745 0.52600002 4281151539
0.31973439 -0.13054745 0.52600002 4281348148
0.32203099 -0.13079564 0.52700001 4281216562
0.32371971 -0.13079564 0.52700001 4281019953
0.32540846 -0.13079564 0.52700001 4281019953
0.32709718 -0.13079564 0.52700001 4281019953
0.32878596 -0.13079564 0.52700001 4281085746
0.3304747 -0.13079564 0.52700001 4281085746
0.33216342 -0.13079564 0.52700001 4281151539
0.33385217 -0.13079564 0.52700001 4281479734
0.33617762 -0.13104382 0.528 4281677113
0.33786955 -0.13104382 0.528 4281742647
0.33956149 -0.13104382 0.528 4281742647
0.34125343 -0.13104382 0.528 4281676852
0.3429454 -0.13104382 0.528 4281742645
0.34529009 -0.13129203 0.52900004 4281611059
0.34698522 -0.13129203 0.52900004 4281413680
0.34933951 -0.13154021 0.53000003 4281282096
0.35170016 -0.1317884 0.53100002 4281216303
0.35340175 -0.1317884 0.53100002 4281084717
0.35577205 -0.13203658 0.53200001 4280887338
0.35814878 -0.13228479 0.53300005 4280558630
-0 -0 0 4294102974
-0 -0 0 4294102974
-0 -0 0 4294102974
-0 -0 0 4294102974
-0 -0 0 4294102974
-0 -0 0 4294102974
-0 -0 0 4294102974
-0 -0 0 4294102974
-0 -0 0 4294102974
-0 -0 0 4294102974
-0 -0 0 4294102974
-0 -0 0 4294102974
-0 -0 0 4294102974
-0 -0 0 4294102974
-0 -0 0 4294102974
-0 -0 0 4294102974
-0 -0 0 4294102974
-0 -0 0 4294102974
-0 -0 0 4294102974
-0 -0 0 4294102974
-0 -0 0 4294102974
-0 -0 0 4294102974
-0 -0 0 4294102974
-0 -0 0 4294102974
-0 -0 0 4294102974
-0 -0 0 4294102974
-0 -0 0 4294102974
-0 -0 0 4294102974
-0 -0 0 4294102974
-0 -0 0 4294102974
-0 -0 0 4294102974
-0 -0 0 4294102974
-0 -0 0 4294102974
-0 -0 0 4294102974
-0 -0 0 4294102974
-0 -0 0 4294102974
-0 -0 0 4294102974
-0 -0 0 4294102974
-0 -0 0 4294102974
-0 -0 0 4294102974
-0 -0 0 4294102974
-0 -0 0 4294102974
-0 -0 0 4294102974
-0 -0 0 4294102974
-0 -0 0 4294102974
-0 -0 0 4294102974
-0 -0 0 4294102974
-0.26752636 -0.12298229 0.50200003 4282795584
-0.26644742 -0.12322728 0.50300002 4282927170
-0 -0 0 4294102974
-0 -0 0 4294102974
-0.26213205 -0.12347225 0.50400001 4282795584
-0.26103389 -0.12371723 0.505 4282927170
-0.25941566 -0.12371723 0.505 4282795584
-0 -0 0 4294102974
-0 -0 0 4294102974
-0.25506505 -0.12396223 0.50600004 4282927427
-0 -0 0 4294102974
-0 -0 0 4294102974
-0 -0 0 4294102974
-0 -0 0 4294102974
-0 -0 0 4294102974
-0 -0 0 4294102974
-0 -0 0 4294102974
-0.24352878 -0.12469718 0.509 4283387978
-0.2418977 -0.12469718 0.509 4283519564
-0.2407387 -0.12494217 0.51000005 4283387978
-0.23910445 -0.12494217 0.51000005 4283519564
-0 -0 0 4294102974
-0 -0 0 4294102974
-0 -0 0 4294102974
-0 -0 0 4294102974
-0 -0 0 4294102974
-0 -0 0 4294102974
-0.22677177 -0.1244522 0.50800002 4283585100
-0.22514391 -0.1244522 0.50800002 4283782479
-0.22351606 -0.1244522 0.50800002 4283716686
-0.22145142 -0.12420721 0.50700003 4283716688
-0.21982677 -0.12420721 0.50700003 4283782481
-0.21777175 -0.12396223 0.50600004 4283914067
-0.21615028 -0.12396223 0.50600004 4283914067
-0.21410486 -0.12371723 0.505 4284045653
-0.21248661 -0.12371723 0.505 4284045653
-0.21086837 -0.12371723 0.505 4284111446
-0.20883578 -0.12347225 0.50400001 4284243032
-0.20763189 -0.12371723 0.505 4284243032
-0.2056057 -0.12347225 0.50400001 4284177239
-0.20399067 -0.12347225 0.50400001 4284243032
-0.20237564 -0.12347225 0.50400001 4284177239
-0.20076059 -0.12347225 0.50400001 4284374618
-0.19914554 -0.12347225 0.50400001 4284374618
-0.19753051 -0.12347225 0.50400001 4284374618
-0.19591548 -0.12347225 0.50400001 4284440411
-0.19430044 -0.12347225 0.50400001 4284506204
-0.19268538 -0.12347225 0.50400001 4284571997
-0.19107035 -0.12347225 0.50400001 4284571997
-0.18945532 -0.12347225 0.50400001 4284571997
-0.18784028 -0.12347225 0.50400001 4284637790
-0.18622525 -0.12347225 0.50400001 4284571997
-0.18461019 -0.12347225 0.50400001 4284571997
-0.18299516 -0.12347225 0.50400001 4284703583
-0.18138012 -0.12347225 0.50400001 4284900962
-0.17976509 -0.12347225 0.50400001 4284703583
-0.17850353 -0.12371723 0.505 4284572254
-0.17688526 -0.12371723 0.505 4284901219
-0.17526703 -0.12371723 0.505 4284835426
-0.17399266 -0.12396223 0.50600004 4284901219
-0.17237122 -0.12396223 0.50600004 4284835426
-0.17108722 -0.12420721 0.50700003 4284835426
-0.16946256 -0.12420721 0.50700003 4284967012
-0.1678379 -0.12420721 0.50700003 4285032805
-0.16621326 -0.12420721 0.50700003 4285032805
-0.16458862 -0.12420721 0.50700003 4285098598
-0.16296396 -0.12420721 0.50700003 4285098598
-0.1613393 -0.12420721 0.50700003 4285230184
-0.15939963 -0.12396223 0.50600004 4285295977
-0.15777819 -0.12396223 0.50600004 4285230184
-0.15584812 -0.12371723 0.505 4285230184
-0.15422988 -0.12371723 0.505 4285295977
-0.15230943 -0.12347225 0.50400001 4285295977
-0.1506944 -0.12347225 0.50400001 4285295977
-0.14878356 -0.12322728 0.50300002 4285427563
-0.14717174 -0.12322728 0.50300002 4285427563
-0.14555991 -0.12322728 0.50300002 4285427563
-0.14366189 -0.12298229 0.50200003 4285361770
-0.14205326 -0.12298229 0.50200003 4285493356
-0.14044464 -0.12298229 0.50200003 4285493356
-0.13883601 -0.12298229 0.50200003 4285427563
-0.13722739 -0.12298229 0.50200003 4285427563
-0.13561873 -0.12298229 0.50200003 4285559149
-0.13401011 -0.12298229 0.50200003 4285559149
-0.13266523 -0.12322728 0.50300002 4285493356
-0.1310534 -0.12322728 0.50300002 4285559149
-0.12944157 -0.12322728 0.50300002 4285493356
-0.12782972 -0.12322728 0.50300002 4285559149
-0.12621789 -0.12322728 0.50300002 4285493356
-0.12460606 -0.12322728 0.50300002 4285690735
-0.12299423 -0.12322728 0.50300002 4285690735
-0.12138239 -0.12322728 0.50300002 4285559149
-0.11977056 -0.12322728 0.50300002 4285690735
-0.11815872 -0.12322728 0.50300002 4285559149
-0.11654689 -0.12322728 0.50300002 4285756528
-0.11493506 -0.12322728 0.50300002 4285953907
-0.11332322 -0.12322728 0.50300002 4285888114
-0.11171139 -0.12322728 0.50300002 4285888114
-0.11009955 -0.12322728 0.50300002 4285888114
-0.10827205 -0.12298229 0.50200003 4285888114
-0.10666341 -0.12298229 0.50200003 4285822321
-0.10505478 -0.12298229 0.50200003 4285822321
-0.10344616 -0.12298229 0.50200003 4285822321
-0.10183752 -0.12298229 0.50200003 4285822321
-0.10022889 -0.12298229 0.50200003 4285822321
-0.098816715 -0.12322728 0.50300002 4285822321
-0.097204879 -0.12322728 0.50300002 4285756528
-0.09559305 -0.12322728 0.50300002 4285690735
-0.093981214 -0.12322728 0.50300002 4285559149
-0.092369385 -0.12322728 0.50300002 4285822321
-0.090757541 -0.12322728 0.50300002 4285756528
-0.08932294 -0.12347225 0.50400001 4285756528
-0.0877079 -0.12347225 0.50400001 4285822321
-0.08609286 -0.12347225 0.50400001 4285822321
-0.084310211 -0.12322728 0.50300002 4285756528
-0.082698375 -0.12322728 0.50300002 4285756528
-0.081086539 -0.12322728 0.50300002 4285822321
-0.07947471 -0.12322728 0.50300002 4285822321
-0.077862874 -0.12322728 0.50300002 4286019700
-0.076099448 -0.12298229 0.50200003 4286151286
-0.074490815 -0.12298229 0.50200003 4285953907
-0.07288219 -0.12298229 0.50200003 4285953907
-0.071131587 -0.12273731 0.50100005 4286019700
-0.069526158 -0.12273731 0.50100005 4286019700
-0.067920737 -0.12273731 0.50100005 4285953907
-0.066182934 -0.12249231 0.5 4285888114
-0.064580716 -0.12249231 0.5 4285953907
-0.062978499 -0.12249231 0.5 4286019700
-0.061376274 -0.12249231 0.5 4285888884
-0.059774052 -0.12249231 0.5 4285888884
-0.058171835 -0.12249231 0.5 4285888884
-0.056682758 -0.12273731 0.50100005 4286020470
-0.055077333 -0.12273731 0.50100005 4285888884
-0.053471908 -0.12273731 0.50100005 4285888884
-0.051970005 -0.12298229 0.50200003 4285888631
-0.05036138 -0.12298229 0.50200003 4285822838
-0.048752747 -0.12298229 0.50200003 4285822838
-0.047144119 -0.12298229 0.50200003 4286020217
-0.045535486 -0.12298229 0.50200003 4285822838
-0.043926857 -0.12298229 0.50200003 4285822838
-0.042233933 -0.12273731 0.50100005 4285822838
-0.040628508 -0.12273731 0.50100005 4285888631
-0.039023083 -0.12273731 0.50100005 4285888631
-0.037417654 -0.12273731 0.50100005 4285822838
-0.035740744 -0.12249231 0.5 4285757298
-0.034138523 -0.12249231 0.5 4285823091
-0.032536305 -0.12249231 0.5 4285757298
-0.030934084 -0.12249231 0.5 4285757298
-0.029331863 -0.12249231 0.5 4285691505
-0.027729642 -0.12249231 0.5 4285757298
-0.026127422 -0.12249231 0.5 4285757298
-0.024525201 -0.12249231 0.5 4285691505
-0.022922982 -0.12249231 0.5 4285691505
-0.02132076 -0.12249231 0.5 4285691505
-0.019757979 -0.12273731 0.50100005 4285691252
-0.018152554 -0.12273731 0.50100005 4285691252
-0.016547129 -0.12273731 0.50100005 4285757045
-0.014971526 -0.12298229 0.50200003 4285757045
-0.013362898 -0.12298229 0.50200003 4285625459
-0.011777681 -0.12322728 0.50300002 4285757045
-0.010165848 -0.12322728 0.50300002 4285757045
-0.0085540144 -0.12322728 0.50300002 4285691252
-0.0069559813 -0.12347225 0.50400001 4285625459
-0.0053409431 -0.12347225 0.50400001 4285625459
-0.0037259045 -0.12347225 0.50400001 4285559666
-0.0021108661 -0.12347225 0.50400001 4285559666
-0.00049582782 -0.12347225 0.50400001 4285625459
0.0011192105 -0.12347225 0.50400001 4285559666
0.002734249 -0.12347225 0.50400001 4285362287
0.0043492871 -0.12347225 0.50400001 4285559668
0.0059643253 -0.12347225 0.50400001 4285625461
0.0075643258 -0.12322728 0.50300002 4285428082
0.0091761602 -0.12322728 0.50300002 4285559668
0.010787994 -0.12322728 0.50300002 4285625461
0.012399827 -0.12322728 0.50300002 4285296496
0.014011662 -0.12322728 0.50300002 4285362287
0.015623496 -0.12322728 0.50300002 4285428080
0.017235329 -0.12322728 0.50300002 4285428080
0.018847164 -0.12322728 0.50300002 4285559666
0.020458996 -0.12322728 0.50300002 4285625459
0.022070833 -0.12322728 0.50300002 4285559666
0.023682665 -0.12322728 0.50300002 4285428080
0.025294499 -0.12322728 0.50300002 4285428080
0.026906334 -0.12322728 0.50300002 4285362287
0.028518166 -0.12322728 0.50300002 4285296494
0.030130001 -0.12322728 0.50300002 4285559666
0.031741835 -0.12322728 0.50300002 4285362287
0.033353671 -0.12322728 0.50300002 4285428080
0.035035014 -0.12347225 0.50400001 4285362287
0.036650054 -0.12347225 0.50400001 4285428080
0.038265094 -0.12347225 0.50400001 4285428080
0.039959259 -0.12371723 0.505 4285428080
0.041659836 -0.12396223 0.50600004 4285362287
0.043281283 -0.12396223 0.50600004 4285362287
0.044902731 -0.12396223 0.50600004 4285362287
0.046616122 -0.12420721 0.50700003 4285559666
0.048240773 -0.12420721 0.50700003 4285362287
0.049865425 -0.12420721 0.50700003 4285362287
0.05149008 -0.12420721 0.50700003 4285362287
0.053114727 -0.12420721 0.50700003 4285231471
0.054739378 -0.12420721 0.50700003 4285165678
0.056364033 -0.12420721 0.50700003 4285297264
0.057988685 -0.12420721 0.50700003 4285297264
0.059613336 -0.12420721 0.50700003 4285297266
0.061237987 -0.12420721 0.50700003 4285297266
0.06273865 -0.12396223 0.50600004 4285099887
0.064360105 -0.12396223 0.50600004 4285099887
0.065851144 -0.12371723 0.505 4285099887
0.067469381 -0.12371723 0.505 4285231473
0.068950824 -0.12347225 0.50400001 4285231473
0.070565857 -0.12347225 0.50400001 4285297266
0.072037689 -0.12322728 0.50300002 4285165680
0.073649518 -0.12322728 0.50300002 4285297266
0.075111724 -0.12298229 0.50200003 4285165680
0.076720364 -0.12298229 0.50200003 4285165680
0.078172952 -0.12273731 0.50100005 4285165680
0.079778388 -0.12273731 0.50100005 4285099887
0.081383809 -0.12273731 0.50100005 4285231473
0.082989231 -0.12273731 0.50100005 4285231473
0.0844258 -0.12249231 0.5 4285231473
0.086028017 -0.12249231 0.5 4285428082
0.087630242 -0.12249231 0.5 4285230703
0.08923246 -0.12249231 0.5 4285230703
0.090834677 -0.12249231 0.5 4285230703
0.092436902 -0.12249231 0.5 4285164910
0.09403912 -0.12249231 0.5 4285164910
0.095641345 -0.12249231 0.5 4285296496
0.097243562 -0.12249231 0.5 4285230703
0.09884578 -0.12249231 0.5 4285230703
0.100448 -0.12249231 0.5 4285296496
0.10205022 -0.12249231 0.5 4285362289
0.10385976 -0.12273731 0.50100005 4285296496
0.10546518 -0.12273731 0.50100005 4285296496
0.10728431 -0.12298229 0.50200003 4285296496
0.10889295 -0.12298229 0.50200003 4285230701
0.11050158 -0.12298229 0.50200003 4285099115
0.11233354 -0.12322728 0.50300002 4285164908
0.11394536 -0.12322728 0.50300002 4285296494
0.1155572 -0.12322728 0.50300002 4285164908
0.11716904 -0.12322728 0.50300002 4285362287
0.11878087 -0.12322728 0.50300002 4285164908
0.1203927 -0.12322728 0.50300002 4285164908
0.12200454 -0.12322728 0.50300002 4285427310
0.12361638 -0.12322728 0.50300002 4285361517
0.12522821 -0.12322728 0.50300002 4285361517
0.12684004 -0.12322728 0.50300002 4285427310
0.12845187 -0.12322728 0.50300002 4285361517
0.13006371 -0.12322728 0.50300002 4285295724
0.13167554 -0.12322728 0.50300002 4285229931
0.13328737 -0.12322728 0.50300002 4285229931
0.13489921 -0.12322728 0.50300002 4285229931
0.13651104 -0.12322728 0.50300002 4285295724
0.13812287 -0.12322728 0.50300002 4285229931
0.1397347 -0.12322728 0.50300002 4285098345
0.14134654 -0.12322728 0.50300002 4285229931
0.14295839 -0.12322728 0.50300002 4285032552
0.14457022 -0.12322728 0.50300002 4285295724
0.14618205 -0.12322728 0.50300002 4285098345
0.14779387 -0.12322728 0.50300002 4285229931
0.14910869 -0.12298229 0.50200003 4285098345
0.15071732 -0.12298229 0.50200003 4285032552
0.15232594 -0.12298229 0.50200003 4285032552
0.15393458 -0.12298229 0.50200003 4284966759
0.15523335 -0.12273731 0.50100005 4284966759
0.1568388 -0.12273731 0.50100005 4284966759
0.15812795 -0.12249231 0.5 4284966759
0.15973017 -0.12249231 0.5 4284966759
0.16133238 -0.12249231 0.5 4284966761
0.1629346 -0.12249231 0.5 4284835175
0.16453683 -0.12249231 0.5 4284835175
