# .PCD v0.7 - Point Cloud Data file format
VERSION 0.7
FIELDS x y z rgb
SIZE 4 4 4 4
TYPE F F F U
COUNT 1 1 1 1
WIDTH 1207
HEIGHT 1
VIEWPOINT 0 0 0 1 0 0 0
POINTS 1207
DATA ascii
-0.20076947 0.037729744 0.5 4280823855
-0.19916725 0.037729744 0.5 4280889648
-0.19756502 0.037729744 0.5 4280955441
-0.19635475 0.037805207 0.50100005 4280889648
-0.19474933 0.037805207 0.50100005 4280889648
-0.19352941 0.037880667 0.50200003 4280692269
-0.19192077 0.037880667 0.50200003 4280823855
-0.19069125 0.037956122 0.50300002 4280823855
-0.18907942 0.037956122 0.50300002 4280823855
-0.18784028 0.038031582 0.50400001 4280758062
-0.18622525 0.038031582 0.50400001 4280758062
-0.18461019 0.038031582 0.50400001 4280823855
-0.18299516 0.038031582 0.50400001 4280823855
-0.18138012 0.038031582 0.50400001 4280823857
-0.17976509 0.038031582 0.50400001 4280758064
-0.17815006 0.038031582 0.50400001 4280889650
-0.17653501 0.038031582 0.50400001 4280889650
-0.17491996 0.038031582 0.50400001 4280889650
-0.17330493 0.038031582 0.50400001 4280889650
-0.1716899 0.038031582 0.50400001 4280823857
-0.17007487 0.038031582 0.50400001 4280758064
-0.16845982 0.038031582 0.50400001 4280758064
-0.16684477 0.038031582 0.50400001 4280823857
-0.16555758 0.038107041 0.505 4280758064
-0.16426398 0.038182504 0.50600004 4280758064
-0.16264254 0.038182504 0.50600004 4280758064
-0.16102108 0.038182504 0.50600004 4280823857
-0.1590846 0.038107041 0.505 4280823857
-0.15746637 0.038107041 0.505 4280758064
-0.15584812 0.038107041 0.505 4280692269
-0.15392448 0.038031582 0.50400001 4280692269
-0.15200724 0.037956122 0.50300002 4280560683
-0.14979741 0.037805207 0.50100005 4280560683
-0.14789619 0.037729744 0.5 4280429097
-0.14512362 0.037427906 0.49600002 4280297511
-0.14237669 0.037126068 0.49200001 4280034339
-0.13965538 0.036824234 0.48800004 4279902753
-0.13667673 0.036446933 0.48300001 4279902753
-0.13400991 0.036145099 0.47900003 4279836960
-0.13109216 0.035767801 0.47400004 4279573788
-0.12820645 0.0353905 0.46900001 4279639581
-0.12535277 0.035013203 0.46400002 4279836958
-0.12359897 0.034937747 0.46300003 4279771165
-0.12185156 0.034862284 0.46200001 4279836958
-0.12011057 0.034786824 0.46100003 4279771165
-0.11863333 0.034786824 0.46100003 4279836445
-0 0 0 4286550132
-0 0 0 4286550132
-0 0 0 4286550132
-0 0 0 4286550132
-0.10449021 0.032673959 0.43300003 4284368442
-0.10357892 0.032824881 0.43500003 4288908159
-0 0 0 4286550132
-0 0 0 4286550132
-0 0 0 4286550132
-0.10363555 0.034711365 0.46000001 4288313704
-0.10327196 0.035088666 0.46500003 4287853153
-0.10156301 0.035013203 0.46400002 4287656544
-0.10007615 0.035013203 0.46400002 4287459165
-0.098589279 0.035013203 0.46400002 4286998868
-0.097102426 0.035013203 0.46400002 4285814594
-0.095615566 0.035013203 0.46400002 4283905573
-0.094128698 0.035013203 0.46400002 4282918678
-0.092442185 0.034937747 0.46300003 4284302136
-0.090958528 0.034937747 0.46300003 4288644474
-0.089474872 0.034937747 0.46300003 4288582288
-0.087991223 0.034937747 0.46300003 4289437597
-0.086507559 0.034937747 0.46300003 4289308070
-0.084840268 0.034862284 0.46200001 4289834414
-0.083359808 0.034862284 0.46200001 4290164410
-0.081879362 0.034862284 0.46200001 4290427582
-0.08057294 0.034937747 0.46300003 4290559684
-0.079089276 0.034937747 0.46300003 4290691270
-0.077605627 0.034937747 0.46300003 4290297284
-0.076121964 0.034937747 0.46300003 4290560456
-0.074799515 0.035013203 0.46400002 4290560456
-0.073312655 0.035013203 0.46400002 4284637546
-0.071825787 0.035013203 0.46400002 4288387747
-0.070490532 0.035088666 0.46500003 4291743960
-0.069148846 0.035164122 0.46600002 4291743960
-0.067655578 0.035164122 0.46600002 4292073443
-0.066162311 0.035164122 0.46600002 4292205029
-0.064669035 0.035164122 0.46600002 4292402669
-0.063311338 0.035239581 0.46700001 4292205290
-0.06181486 0.035239581 0.46700001 4292337648
-0.060447555 0.03531504 0.46800002 4292271855
-0.058947876 0.03531504 0.46800002 4292073443
-0.057448193 0.03531504 0.46800002 4289639102
-0.055948514 0.03531504 0.46800002 4286084987
-0.054448839 0.03531504 0.46800002 4290558911
-0.05294916 0.03531504 0.46800002 4292006360
-0.051449481 0.03531504 0.46800002 4291874774
-0.049843069 0.035239581 0.46700001 4291875546
-0.048346594 0.035239581 0.46700001 4291809753
-0.046850126 0.035239581 0.46700001 4292007650
-0.045353651 0.035239581 0.46700001 4292139236
-0.043857176 0.035239581 0.46700001 4292402156
-0.042451411 0.03531504 0.46800002 4292402156
-0.040951733 0.03531504 0.46800002 4292533742
-0.039452054 0.03531504 0.46800002 4292270570
-0.037952375 0.03531504 0.46800002 4292533224
-0.036452696 0.03531504 0.46800002 4288717230
-0.034953017 0.03531504 0.46800002 4288650660
-0.033453338 0.03531504 0.46800002 4291940310
-0.032021936 0.0353905 0.46900001 4291743190
-0.030519055 0.0353905 0.46900001 4291940569
-0.029016173 0.0353905 0.46900001 4292466915
-0.027513288 0.0353905 0.46900001 4292269536
-0.026010405 0.0353905 0.46900001 4292401122
-0.024559779 0.035465963 0.47000003 4292401122
-0.02310274 0.035541419 0.47100002 4292598240
-0.02159345 0.035541419 0.47100002 4290756036
-0.020126799 0.035616882 0.47200003 4290756036
-0.018653739 0.035692338 0.47300002 4287000942
-0.01713804 0.035692338 0.47300002 4285619289
-0.015622337 0.035692338 0.47300002 4285221183
-0.014136462 0.035767801 0.47400004 4284497460
-0.012590936 0.035692338 0.47300002 4290291873
-0.011075235 0.035692338 0.47300002 4290423459
-0.0095393248 0.035616882 0.47200003 4290887102
-0.0080098221 0.035541419 0.47100002 4292597720
-0.0064867288 0.035465963 0.47000003 4294901502
-0.0049700444 0.0353905 0.46900001 4294901502
-0.0034597686 0.03531504 0.46800002 4294901502
-0.0019600901 0.03531504 0.46800002 4294901502
-0.00046041157 0.03531504 0.46800002 4294835454
0.0010370463 0.035239581 0.46700001 4294309110
0.0025335203 0.035239581 0.46700001 4293585135
0.0040299944 0.035239581 0.46700001 4293058791
0.0055146343 0.035164122 0.46600002 4291676620
0.0070079044 0.035164122 0.46600002 4289439658
0.0085011739 0.035164122 0.46600002 4291939790
0.0099944435 0.035164122 0.46600002 4291742411
0.011463062 0.035088666 0.46500003 4291085251
0.01292527 0.035013203 0.46400002 4290953665
0.014412131 0.035013203 0.46400002 4291742411
0.015864728 0.034937747 0.46300003 4291939790
0.017348384 0.034937747 0.46300003 4291808204
0.018791365 0.034862284 0.46200001 4291939790
0.020227939 0.034786824 0.46100003 4291677388
0.021705186 0.034786824 0.46100003 4291808974
0.023132145 0.034711365 0.46000001 4291874767
0.024552699 0.034635905 0.45900002 4291874767
0.026023535 0.034635905 0.45900002 4291810005
0.027494375 0.034635905 0.45900002 4291875798
0.028965214 0.034635905 0.45900002 4291875026
0.030436054 0.034635905 0.45900002 4291546061
0.031906888 0.034635905 0.45900002 4292269778
0.033377729 0.034635905 0.45900002 4292467157
0.034848567 0.034635905 0.45900002 4288978843
0.036319409 0.034635905 0.45900002 4291873735
0.037790246 0.034635905 0.45900002 4292663766
0.03926108 0.034635905 0.45900002 4292466387
0.040731922 0.034635905 0.45900002 4291940043
0.042110816 0.034560449 0.45800003 4292203215
0.04357845 0.034560449 0.45800003 4292269527
0.045046087 0.034560449 0.45800003 4292401113
0.046615276 0.034635905 0.45900002 4292138716
0.048086114 0.034635905 0.45900002 4291875544
0.049664918 0.034711365 0.46000001 4291678165
0.051138964 0.034711365 0.46000001 4291678165
0.052727383 0.034786824 0.46100003 4291481038
0.054322213 0.034862284 0.46200001 4291481038
0.055923447 0.034937747 0.46300003 4291415245
0.057407103 0.034937747 0.46300003 4291216318
0.058890764 0.034937747 0.46300003 4291084732
0.060504816 0.035013203 0.46400002 4291807426
0.061991673 0.035013203 0.46400002 4291939012
0.063478537 0.035013203 0.46400002 4291873217
0.064965397 0.035013203 0.46400002 4291807424
0.066452257 0.035013203 0.46400002 4291741631
0.067939118 0.035013203 0.46400002 4291741631
0.069425978 0.035013203 0.46400002 4291741370
0.070912838 0.035013203 0.46400002 4291412405
0.072399698 0.035013203 0.46400002 4290096029
0.073886566 0.035013203 0.46400002 4290359201
0.075373419 0.035013203 0.46400002 4291412664
0.076860279 0.035013203 0.46400002 4291807422
0.078347147 0.035013203 0.46400002 4291480260
0.079833999 0.035013203 0.46400002 4291611846
0.081320867 0.035013203 0.46400002 4291809227
0.082807727 0.035013203 0.46400002 4292269778
0.084476255 0.035088666 0.46500003 4289043866
0.086151198 0.035164122 0.46600002 4289504417
0.08783254 0.035239581 0.46700001 4290295218
0.089520305 0.03531504 0.46800002 4291084734
0.091214463 0.0353905 0.46900001 4291480009
0.092915036 0.035465963 0.47000003 4291874767
0.094421133 0.035465963 0.47000003 4292006614
0.09613131 0.035541419 0.47100002 4292072407
0.097847916 0.035616882 0.47200003 4291941337
0.099360414 0.035616882 0.47200003 4292204509
0.1008729 0.035616882 0.47200003 4292402662
0.10260232 0.035692338 0.47300002 4292468455
0.10411802 0.035692338 0.47300002 4292468455
0.10563372 0.035692338 0.47300002 4292731373
0.10714942 0.035692338 0.47300002 4292599787
0.10866512 0.035692338 0.47300002 4289901758
0.11018082 0.035692338 0.47300002 4288849070
0.11146038 0.035616882 0.47200003 4292929006
0.11297288 0.035616882 0.47200003 4292929006
0.11424281 0.035541419 0.47100002 4294178815
0.11575211 0.035541419 0.47100002 4293586682
0.11701244 0.035465963 0.47000003 4291942361
0.11851853 0.035465963 0.47000003 4290626501
0.11976924 0.0353905 0.46900001 4290822336
0.12101355 0.03531504 0.46800002 4290624957
0.12251323 0.03531504 0.46800002 4290493624
0.12374791 0.035239581 0.46700001 4290230452
0.12524439 0.035239581 0.46700001 4292269782
0.12646948 0.035164122 0.46600002 4292467161
0.12796274 0.035164122 0.46600002 4292796128
0.12945601 0.035164122 0.46600002 4292796128
0.13094927 0.035164122 0.46600002 4292467161
0.13244256 0.035164122 0.46600002 4292203989
0.13393582 0.035164122 0.46600002 4291940041
0.1357197 0.035239581 0.46700001 4290755767
0.13751002 0.03531504 0.46800002 4289899945
0.1390097 0.03531504 0.46800002 4289505187
0.14050938 0.03531504 0.46800002 4288320913
0.14231248 0.0353905 0.46900001 4287070846
0.14381537 0.0353905 0.46900001 4285819232
0.1450084 0.03531504 0.46800002 4282332203
0.1465081 0.03531504 0.46800002 4283248926
0.14737526 0.035164122 0.46600002 4284367407
0.1482296 0.035013203 0.46400002 4285484080
0.1493938 0.034937747 0.46300003 4286010424
0.15022571 0.034786824 0.46100003 4286273850
0.15104482 0.034635905 0.45900002 4286602815
0.1518511 0.034484986 0.45700002 4286800194
0.15264456 0.034334067 0.45500001 4286865987
0.15376389 0.034258608 0.45400003 4286998086
0.15453492 0.034107689 0.45200002 4287261258
0.15598334 0.034107689 0.45200002 4287327311
0.15812835 0.034258608 0.45400003 4287524690
0.16098918 0.034560449 0.45800003 4289695611
0.16423036 0.034937747 0.46300003 4289037681
0.16750358 0.03531504 0.46800002 4288973948
0.17080885 0.035692338 0.47300002 4288973948
0.17451049 0.036145099 0.47900003 4284500024
0.17788306 0.036522396 0.48400003 4280821026
0.18128766 0.03689969 0.48900002 4280952612
0.18397643 0.037126068 0.49200001 4280494377
0.18593018 0.037201531 0.49300003 4280494377
0.18789029 0.037276987 0.49400002 4280494377
0.18985684 0.03735245 0.49500003 4280625963
0.19182979 0.037427906 0.49600002 4280560170
0.19341919 0.037427906 0.49600002 4280560170
0.19579493 0.037578829 0.49800003 4280560683
0.19778711 0.037654284 0.49900001 4280560683
0.19938612 0.037654284 0.49900001 4280823857
0.2013879 0.037729744 0.5 4280823857
0.20380209 0.037880667 0.50200003 4280823857
0.2058199 0.037956122 0.50300002 4281021236
0.20825651 0.038107041 0.505 4280955443
0.20987475 0.038107041 0.505 4280955443
0.21191181 0.038182504 0.50600004 4280889650
0.21395525 0.038257964 0.50700003 4280955443
0.21557991 0.038257964 0.50700003 4280955443
0.21720456 0.038257964 0.50700003 4280955189
0.21882921 0.038257964 0.50700003 4281020982
0.22045386 0.038257964 0.50700003 4280955189
0.22164048 0.038182504 0.50600004 4280955189
0.2228207 0.038107041 0.505 4280955189
0.22443894 0.038107041 0.505 4280889396
0.22605717 0.038107041 0.505 4281021236
0.22767541 0.038107041 0.505 4280889650
0.22929366 0.038107041 0.505 4280889650
0.23136918 0.038182504 0.50600004 4280889650
0.23299062 0.038182504 0.50600004 4280823857
0.23461208 0.038182504 0.50600004 4280823857
0.23670037 0.038257964 0.50700003 4280889650
0.23832503 0.038257964 0.50700003 4280889650
0.23994969 0.038257964 0.50700003 4280758064
0.24157433 0.038257964 0.50700003 4280758064
0.24319899 0.038257964 0.50700003 4280758064
0.24530651 0.03833342 0.50800002 4280758064
0.24693437 0.03833342 0.50800002 4280758064
0.24856223 0.03833342 0.50800002 4280758064
0.25068259 0.038408879 0.509 4280627248
0.25231364 0.038408879 0.509 4280627248
0.25394469 0.038408879 0.509 4280561455
0.25557575 0.038408879 0.509 4280561455
0.25670153 0.03833342 0.50800002 4280626994
0.25832936 0.03833342 0.50800002 4280561201
0.25944549 0.038257964 0.50700003 4280561201
0.26055524 0.038182504 0.50600004 4280561201
0.26114038 0.038031582 0.50400001 4280429615
0.26223409 0.037956122 0.50300002 4280429615
0.26279685 0.037805207 0.50100005 4280429615
0.2638745 0.037729744 0.5 4280363822
0.26547673 0.037729744 0.5 4280429615
0.26654479 0.037654284 0.49900001 4280561201
0.2681438 0.037654284 0.49900001 4280363822
0.26974282 0.037654284 0.49900001 4280363822
0.27134183 0.037654284 0.49900001 4280363822
0.27348784 0.037729744 0.5 4280429615
0.27509004 0.037729744 0.5 4280298029
0.27724567 0.037805207 0.50100005 4280298029
0.27940768 0.037880667 0.50200003 4280363822
0.2815761 0.037956122 0.50300002 4280298029
0.28375092 0.038031582 0.50400001 4280298029
0 0 0 4286550132
0.28868923 0.038257964 0.50700003 4280298029
0.29088646 0.03833342 0.50800002 4280363822
0.29309016 0.038408879 0.509 4280363822
0.29530028 0.038484342 0.51000005 4280298029
0.29693452 0.038484342 0.51000005 4280232236
0.29973963 0.038635261 0.51200002 4280232236
0.30138031 0.038635261 0.51200002 4280298029
0.30302098 0.038635261 0.51200002 4280232236
0.30525669 0.038710717 0.51300001 4280298029
0 0 0 4286550132
0 0 0 4286550132
0 0 0 4286550132
0.31365579 0.038937099 0.51600003 4280035370
0.31592035 0.039012555 0.51700002 4280232749
0 0 0 4286550132
0 0 0 4286550132
0 0 0 4286550132
0 0 0 4286550132
0 0 0 4286550132
0 0 0 4286550132
0 0 0 4286550132
0 0 0 4286550132
0 0 0 4286550132
0 0 0 4286550132
0 0 0 4286550132
0 0 0 4286550132
0 0 0 4286550132
0 0 0 4286550132
0 0 0 4286550132
0 0 0 4286550132
0 0 0 4286550132
0 0 0 4286550132
0 0 0 4286550132
-0 0 0 4286550132
-0 0 0 4286550132
-0 0 0 4286550132
-0 0 0 4286550132
-0 0 0 4286550132
-0 0 0 4286550132
-0 0 0 4286550132
-0 0 0 4286550132
-0 0 0 4286550132
-0 0 0 4286550132
-0 0 0 4286550132
-0 0 0 4286550132
-0 0 0 4286550132
-0 0 0 4286550132
-0 0 0 4286550132
-0 0 0 4286550132
-0 0 0 4286550132
-0 0 0 4286550132
-0 0 0 4286550132
-0 0 0 4286550132
-0 0 0 4286550132
-0 0 0 4286550132
-0 0 0 4286550132
-0 0 0 4286550132
-0 0 0 4286550132
-0 0 0 4286550132
-0 0 0 4286550132
-0 0 0 4286550132
-0 0 0 4286550132
-0 0 0 4286550132
-0 0 0 4286550132
-0 0 0 4286550132
-0 0 0 4286550132
-0 0 0 4286550132
-0 0 0 4286550132
-0 0 0 4286550132
-0 0 0 4286550132
-0 0 0 4286550132
-0 0 0 4286550132
-0 0 0 4286550132
-0 0 0 4286550132
-0 0 0 4286550132
-0 0 0 4286550132
-0 0 0 4286550132
-0 0 0 4286550132
-0 0 0 4286550132
-0 0 0 4286550132
-0 0 0 4286550132
-0 0 0 4286550132
-0 0 0 4286550132
-0 0 0 4286550132
-0 0 0 4286550132
-0 0 0 4286550132
-0 0 0 4286550132
-0 0 0 4286550132
-0 0 0 4286550132
-0 0 0 4286550132
-0 0 0 4286550132
-0 0 0 4286550132
-0 0 0 4286550132
-0 0 0 4286550132
-0.24646971 0.039725285 0.505 4280758832
-0.24485147 0.039725285 0.505 4280627246
-0.24323323 0.039725285 0.505 4280627246
-0.241615 0.039725285 0.505 4280758834
-0.2395215 0.039646622 0.50400001 4280627248
-0.23790647 0.039646622 0.50400001 4280823857
-0.23676026 0.039725285 0.505 4280889650
-0.23514202 0.039725285 0.505 4280889648
-0.23352377 0.039725285 0.505 4280758062
-0.23190552 0.039725285 0.505 4280889135
-0.23074332 0.039803952 0.50600004 4280823342
-0.22912188 0.039803952 0.50600004 4280954928
-0.22750042 0.039803952 0.50600004 4280954928
-0.22587898 0.039803952 0.50600004 4280823855
-0.22425753 0.039803952 0.50600004 4280889648
-0.22219607 0.039725285 0.505 4280889648
-0.22057784 0.039725285 0.505 4280889648
-0.21852601 0.039646622 0.50400001 4280955441
-0.21691097 0.039646622 0.50400001 4280889648
-0.21486875 0.039567959 0.50300002 4280758062
-0.21283296 0.039489295 0.50200003 4280823855
-0.21080357 0.039410632 0.50100005 4280889648
-0.20919815 0.039410632 0.50100005 4280823855
-0.20759273 0.039410632 0.50100005 4280823855
-0.20557612 0.039331965 0.5 4280955441
-0.2039739 0.039331965 0.5 4280889648
-0.20237169 0.039331965 0.5 4280889648
-0.20076947 0.039331965 0.5 4280823855
-0.19916725 0.039331965 0.5 4280889648
-0.19796017 0.039410632 0.50100005 4280955441
-0.19635475 0.039410632 0.50100005 4280823857
-0.19474933 0.039410632 0.50100005 4280692271
-0.1931439 0.039410632 0.50100005 4280758064
-0.19192077 0.039489295 0.50200003 4280758064
-0.19031215 0.039489295 0.50200003 4280823857
-0.18907942 0.039567959 0.50300002 4280823857
-0.18746759 0.039567959 0.50300002 4280823857
-0.18622525 0.039646622 0.50400001 4280758064
-0.18461019 0.039646622 0.50400001 4280823857
-0.18299516 0.039646622 0.50400001 4280758064
-0.18138012 0.039646622 0.50400001 4280823857
-0.17976509 0.039646622 0.50400001 4280823857
-0.17815006 0.039646622 0.50400001 4280758064
-0.17653501 0.039646622 0.50400001 4280758064
-0.17491996 0.039646622 0.50400001 4280758064
-0.17296107 0.039567959 0.50300002 4280758064
-0.17134924 0.039567959 0.50300002 4280823857
-0.16973741 0.039567959 0.50300002 4280758064
-0.16812557 0.039567959 0.50300002 4280758064
-0.16684477 0.039646622 0.50400001 4280823857
-0.16522974 0.039646622 0.50400001 4280758064
-0.16361471 0.039646622 0.50400001 4280758064
-0.16232109 0.039725285 0.505 4280758064
-0.16070284 0.039725285 0.505 4280758064
-0.1590846 0.039725285 0.505 4280692271
-0.15715455 0.039646622 0.50400001 4280692271
-0.15553951 0.039646622 0.50400001 4280692269
-0.15392448 0.039646622 0.50400001 4280494890
-0.15170503 0.039489295 0.50200003 4280560683
-0.14979741 0.039410632 0.50100005 4280494890
-0.14789619 0.039331965 0.5 4280494890
-0.1454162 0.039095975 0.49700001 4280297511
-0.14266607 0.038781319 0.49300003 4280100132
-0.13994156 0.038466662 0.48900002 4279968546
-0.13724269 0.038152006 0.48500001 4279902753
-0.13428968 0.037758689 0.48000002 4279639581
-0.13136873 0.037365369 0.47500002 4279836960
-0.12847982 0.03697205 0.47000003 4279771167
-0.12562293 0.03657873 0.46500003 4279639581
-0.12359897 0.036421403 0.46300003 4279639581
-0.12211531 0.036421403 0.46300003 4279639581
-0.12037111 0.036342736 0.46200001 4279771167
-0.11863333 0.036264073 0.46100003 4279836445
-0 0 0 4286550132
-0 0 0 4286550132
-0 0 0 4286550132
-0 0 0 4286550132
-0.10424889 0.033982817 0.43200001 4283842868
-0 0 0 4286550132
-0 0 0 4286550132
-0 0 0 4286550132
-0 0 0 4286550132
-0 0 0 4286550132
-0.10327196 0.03657873 0.46500003 4287918946
-0.1017819 0.03657873 0.46500003 4287656546
-0.10029183 0.03657873 0.46500003 4287459167
-0.098589279 0.036500067 0.46400002 4286998614
-0.097102426 0.036500067 0.46400002 4285945926
-0.095615566 0.036500067 0.46400002 4284037159
-0.094128698 0.036500067 0.46400002 4281997576
-0.092442185 0.036421403 0.46300003 4285947990
-0.090958528 0.036421403 0.46300003 4287921780
-0.089474872 0.036421403 0.46300003 4288780181
-0.087991223 0.036421403 0.46300003 4289306525
-0.086507559 0.036421403 0.46300003 4289505451
-0.084840268 0.036342736 0.46200001 4289966002
-0.083359808 0.036342736 0.46200001 4290164410
-0.081879362 0.036342736 0.46200001 4290624961
-0.08057294 0.036421403 0.46300003 4290692042
-0.079089276 0.036421403 0.46300003 4290757835
-0.077605627 0.036421403 0.46300003 4290692042
-0.076286368 0.036500067 0.46400002 4290626249
-0.074799515 0.036500067 0.46400002 4290626249
-0.073312655 0.036500067 0.46400002 4286743690
-0.071980588 0.03657873 0.46500003 4291349200
-0.070490532 0.03657873 0.46500003 4291349972
-0.069148846 0.036657393 0.46600002 4291810523
-0.067655578 0.036657393 0.46600002 4292073443
-0.066162311 0.036657393 0.46600002 4292468201
-0.064669035 0.036657393 0.46600002 4292731636
-0.063311338 0.036736056 0.46700001 4292600050
-0.06181486 0.036736056 0.46700001 4292469236
-0.060318392 0.036736056 0.46700001 4292271857
-0.058947876 0.036814723 0.46800002 4292073443
-0.057448193 0.036814723 0.46800002 4292139236
-0.055948514 0.036814723 0.46800002 4284899428
-0.054448839 0.036814723 0.46800002 4284833635
-0.05294916 0.036814723 0.46800002 4289700771
-0.051449481 0.036814723 0.46800002 4292661456
-0.049949802 0.036814723 0.46800002 4291678165
-0.048346594 0.036736056 0.46700001 4291678165
-0.046850126 0.036736056 0.46700001 4291810525
-0.045353651 0.036736056 0.46700001 4292007904
-0.043857176 0.036736056 0.46700001 4292270824
-0.042360701 0.036736056 0.46700001 4292402410
-0.040951733 0.036814723 0.46800002 4292270824
-0.039452054 0.036814723 0.46800002 4292533996
-0.037952375 0.036814723 0.46800002 4290164158
-0.036452696 0.036814723 0.46800002 4289769400
-0.034953017 0.036814723 0.46800002 4292466913
-0.033453338 0.036814723 0.46800002 4292466913
-0.032021936 0.036893383 0.46900001 4292532454
-0.030519055 0.036893383 0.46900001 4292664040
-0.029016173 0.036893383 0.46900001 4292730605
-0.027513288 0.036893383 0.46900001 4292730605
-0.026010405 0.036893383 0.46900001 4292664812
-0.024559779 0.03697205 0.47000003 4292664812
-0.02310274 0.037050713 0.47100002 4292401638
-0.021639297 0.037129376 0.47200003 4292401638
-0.020126799 0.037129376 0.47200003 4292204259
-0.018653739 0.037208039 0.47300002 4291411650
-0.017174272 0.037286706 0.47400004 4285292901
-0.015655367 0.037286706 0.47400004 4283841846
-0.014136462 0.037286706 0.47400004 4286934117
-0.012617556 0.037286706 0.47400004 4289832355
-0.011075235 0.037208039 0.47300002 4291871938
-0.0095393248 0.037129376 0.47200003 4290756288
-0.0080098221 0.037050713 0.47100002 4294506489
-0.0064867288 0.03697205 0.47000003 4294901502
-0.0049700444 0.036893383 0.46900001 4294901502
-0.0034597686 0.036814723 0.46800002 4294835711
-0.0019559017 0.036736056 0.46700001 4293322472
-0.00045942777 0.036736056 0.46700001 4292006355
0.0010348257 0.036657393 0.46600002 4292532699
0.0025280954 0.036657393 0.46600002 4292531929
0.0040213647 0.036657393 0.46600002 4292663515
0.0055146343 0.036657393 0.46600002 4292992480
0.0070079044 0.036657393 0.46600002 4292729308
0.0084829312 0.03657873 0.46500003 4292137169
0.0099729961 0.03657873 0.46500003 4291479239
0.011463062 0.03657873 0.46500003 4291348423
0.01292527 0.036500067 0.46400002 4291019458
0.014412131 0.036500067 0.46400002 4291414216
0.015864728 0.036421403 0.46300003 4291677388
0.017348384 0.036421403 0.46300003 4291808457
0.018832039 0.036421403 0.46300003 4291940043
0.020271817 0.036342736 0.46200001 4291808457
0.021705186 0.036264073 0.46100003 4291940043
0.023182433 0.036264073 0.46100003 4291808974
0.024659682 0.036264073 0.46100003 4291808974
0.026080232 0.03618541 0.46000001 4291940819
0.027554275 0.03618541 0.46000001 4292006612
0.029028319 0.03618541 0.46000001 4291940819
0.030436054 0.036106747 0.45900002 4291875026
0.031906888 0.036106747 0.45900002 4292401364
0.033377729 0.036106747 0.45900002 4291019711
0.034848567 0.036106747 0.45900002 4288913563
0.036319409 0.036106747 0.45900002 4292729557
0.037790246 0.036106747 0.45900002 4292532180
0.03926108 0.036106747 0.45900002 4292400594
0.040731922 0.036106747 0.45900002 4292138192
0.04220276 0.036106747 0.45900002 4292335571
0.043673601 0.036106747 0.45900002 4292269784
0.045144439 0.036106747 0.45900002 4292335577
0.046615276 0.036106747 0.45900002 4291810005
0.048190877 0.03618541 0.46000001 4291744212
0.049772888 0.036264073 0.46100003 4291744212
0.051250137 0.036264073 0.46100003 4291612626
0.05284176 0.036342736 0.46200001 4291414473
0.054439794 0.036421403 0.46300003 4291414473
0.056044232 0.036500067 0.46400002 4291085508
0.057531092 0.036500067 0.46400002 4290887353
0.059145153 0.03657873 0.46500003 4291216318
0.060765613 0.036657393 0.46600002 4291610815
0.062258881 0.036657393 0.46600002 4291676608
0.063752152 0.036657393 0.46600002 4291807424
0.06524542 0.036657393 0.46600002 4291807424
0.066738695 0.036657393 0.46600002 4291807424
0.068231963 0.036657393 0.46600002 4291807424
0.0695756 0.03657873 0.46500003 4291872956
0.071065672 0.03657873 0.46500003 4291741370
0.072555736 0.03657873 0.46500003 4290753959
0.073886566 0.036500067 0.46400002 4290951338
0.075373419 0.036500067 0.46400002 4291280819
0.076860279 0.036500067 0.46400002 4291741370
0.078347147 0.036500067 0.46400002 4291480260
0.079833999 0.036500067 0.46400002 4291546053
0.081320867 0.036500067 0.46400002 4291611595
0.082986191 0.03657873 0.46500003 4286479741
0.084657922 0.036657393 0.46600002 4286478709
0.086151198 0.036657393 0.46600002 4288913050
0.08783254 0.036736056 0.46700001 4290295218
0.089520305 0.036814723 0.46800002 4291347906
0.091214463 0.036893383 0.46900001 4291480266
0.092915036 0.03697205 0.47000003 4291940817
0.094622023 0.037050713 0.47100002 4292072407
0.096335419 0.037129376 0.47200003 4292203993
0.097847916 0.037129376 0.47200003 4292270304
0.099360414 0.037129376 0.47200003 4292928234
0.10108662 0.037208039 0.47300002 4292666093
0.10260232 0.037208039 0.47300002 4292666093
0.10411802 0.037208039 0.47300002 4292666093
0.10563372 0.037208039 0.47300002 4292731373
0.10714942 0.037208039 0.47300002 4291612892
0.10866512 0.037208039 0.47300002 4290231493
0.10994788 0.037129376 0.47200003 4294113279
0.11146038 0.037129376 0.47200003 4293586936
0.11297288 0.037129376 0.47200003 4293126385
0.11424281 0.037050713 0.47100002 4293455098
0.11550636 0.03697205 0.47000003 4293126133
0.11701244 0.03697205 0.47000003 4294442239
0.11851853 0.03697205 0.47000003 4294376447
0.11976924 0.036893383 0.46900001 4292928484
0.12101355 0.036814723 0.46800002 4290691522
0.12251323 0.036814723 0.46800002 4290427831
0.1240129 0.036814723 0.46800002 4290033073
0.12524439 0.036736056 0.46700001 4290295988
0.12674087 0.036736056 0.46700001 4292467157
0.12823734 0.036736056 0.46700001 4292335828
0.12973382 0.036736056 0.46700001 4292072656
0.13094927 0.036657393 0.46600002 4292072403
0.13244256 0.036657393 0.46600002 4291940817
0.13393582 0.036657393 0.46600002 4291084732
0.1357197 0.036736056 0.46700001 4290558388
0.13721618 0.036736056 0.46700001 4290756021
0.13871266 0.036736056 0.46700001 4291019193
0.14050938 0.036814723 0.46800002 4291018939
0.14200905 0.036814723 0.46800002 4290821560
0.14350873 0.036814723 0.46800002 4290755254
0.14469855 0.036736056 0.46700001 4289505187
0.14588198 0.036657393 0.46600002 4286606947
0.14705901 0.03657873 0.46500003 4283580469
0.14791015 0.036421403 0.46300003 4285024044
0.14874847 0.036264073 0.46100003 4285484595
0.14989984 0.03618541 0.46000001 4285944885
0.15071575 0.036028083 0.45800003 4286339643
0.15151882 0.035870753 0.45600003 4286668608
0.15264456 0.03579209 0.45500001 4286800194
0.1534252 0.03563476 0.45300001 4286800707
0.15453492 0.035556097 0.45200002 4287063879
0.15598334 0.035556097 0.45200002 4287326797
0.15812835 0.035713427 0.45400003 4287655762
0.16098918 0.036028083 0.45800003 4289169267
0.16423036 0.036421403 0.46300003 4289169267
0.16750358 0.036814723 0.46800002 4289170814
0.17080885 0.037208039 0.47300002 4289170814
0.17414616 0.037601359 0.47800002 4284762683
0.17751552 0.037994679 0.48300001 4280821024
0.18128766 0.038466662 0.48900002 4280952610
0.18435037 0.038781319 0.49300003 4280560170
0.18593018 0.038781319 0.49300003 4280494377
0.18789029 0.038859982 0.49400002 4280494377
0.18985684 0.038938649 0.49500003 4280494377
0.19182979 0.039017312 0.49600002 4280560170
0.19341919 0.039017312 0.49600002 4280494377
0.19540176 0.039095975 0.49700001 4280429099
0.19739074 0.039174639 0.49800003 4280560685
0.19938612 0.039253302 0.49900001 4280823857
0.2013879 0.039331965 0.5 4280823857
0.20339611 0.039410632 0.50100005 4280890420
0.20541073 0.039489295 0.50200003 4280890420
0.20784412 0.039646622 0.50400001 4280824627
0.20987475 0.039725285 0.505 4280758834
0.21149299 0.039725285 0.505 4280890420
0.21353325 0.039803952 0.50600004 4280758834
0.21515471 0.039803952 0.50600004 4280890420
0.21720456 0.039882615 0.50700003 4280890420
0.21882921 0.039882615 0.50700003 4280824627
0.22001904 0.039803952 0.50600004 4280824627
0.22120245 0.039725285 0.505 4280758834
0.2228207 0.039725285 0.505 4280955443
0.22443894 0.039725285 0.505 4280823857
0.22605717 0.039725285 0.505 4280955443
0.22767541 0.039725285 0.505 4280823857
0.22929366 0.039725285 0.505 4280823857
0.23091191 0.039725285 0.505 4280823857
0.23253015 0.039725285 0.505 4280823857
0.23414838 0.039725285 0.505 4280823857
0.23623352 0.039803952 0.50600004 4280823857
0.23785496 0.039803952 0.50600004 4280823857
0.23947641 0.039803952 0.50600004 4280692017
0.24109787 0.039803952 0.50600004 4280757810
0.24319899 0.039882615 0.50700003 4280692787
0.24482363 0.039882615 0.50700003 4280626994
0.24644828 0.039882615 0.50700003 4280561201
0.24856223 0.039961278 0.50800002 4280626994
0.25019008 0.039961278 0.50800002 4280561455
0.25231364 0.040039942 0.509 4280561455
0.25394469 0.040039942 0.509 4280561455
0.25557575 0.040039942 0.509 4280627248
0.25720683 0.040039942 0.509 4280561455
0.25832936 0.039961278 0.50800002 4280429869
0.25944549 0.039882615 0.50700003 4280364076
0.26055524 0.039803952 0.50600004 4280364076
0.26114038 0.039646622 0.50400001 4280561455
0.26223409 0.039567959 0.50300002 4280561455
0.26279685 0.039410632 0.50100005 4280364076
0.2638745 0.039331965 0.5 4280364076
0.26494578 0.039253302 0.49900001 4280298029
0.26654479 0.039253302 0.49900001 4280363822
0.26760647 0.039174639 0.49800003 4280298029
0.26920226 0.039174639 0.49800003 4280298029
0.27134183 0.039253302 0.49900001 4280363822
0.27294087 0.039253302 0.49900001 4280363822
0.27509004 0.039331965 0.5 4280363822
0.27669227 0.039331965 0.5 4280298029
0.27829447 0.039331965 0.5 4280363822
0.28101632 0.039489295 0.50200003 4280298029
0.28318796 0.039567959 0.50300002 4280298029
0.28593215 0.039725285 0.505 4280232236
0.28811985 0.039803952 0.50600004 4280363822
0.29031387 0.039882615 0.50700003 4280298029
0.29251435 0.039961278 0.50800002 4280363822
0.29472122 0.040039942 0.509 4280232236
0.29693452 0.040118609 0.51000005 4280166443
0.29915422 0.040197272 0.51100004 4280166443
0.30079168 0.040197272 0.51100004 4280298029
0.30242914 0.040197272 0.51100004 4280232236
0.30466166 0.040275935 0.51200002 4280166443
0 0 0 4286550132
0 0 0 4286550132
0 0 0 4286550132
0 0 0 4286550132
0 0 0 4286550132
0 0 0 4286550132
0 0 0 4286550132
0 0 0 4286550132
0 0 0 4286550132
0 0 0 4286550132
0 0 0 4286550132
0 0 0 4286550132
0 0 0 4286550132
0 0 0 4286550132
0 0 0 4286550132
0 0 0 4286550132
0 0 0 4286550132
0 0 0 4286550132
0 0 0 4286550132
0 0 0 4286550132
0 0 0 4286550132
0 0 0 4286550132
0 0 0 4286550132
0 0 0 4286550132
-0 0 0 4286550132
-0 0 0 4286550132
-0 0 0 4286550132
-0 0 0 4286550132
-0 0 0 4286550132
-0 0 0 4286550132
-0 0 0 4286550132
-0 0 0 4286550132
-0 0 0 4286550132
-0 0 0 4286550132
-0 0 0 4286550132
-0 0 0 4286550132
-0 0 0 4286550132
-0 0 0 4286550132
-0 0 0 4286550132
-0 0 0 4286550132
-0 0 0 4286550132
-0 0 0 4286550132
-0 0 0 4286550132
-0 0 0 4286550132
-0 0 0 4286550132
-0 0 0 4286550132
-0 0 0 4286550132
-0 0 0 4286550132
-0 0 0 4286550132
-0 0 0 4286550132
-0 0 0 4286550132
-0 0 0 4286550132
-0 0 0 4286550132
-0 0 0 4286550132
-0 0 0 4286550132
-0 0 0 4286550132
-0 0 0 4286550132
-0 0 0 4286550132
-0 0 0 4286550132
-0 0 0 4286550132
-0 0 0 4286550132
-0 0 0 4286550132
-0 0 0 4286550132
-0 0 0 4286550132
-0 0 0 4286550132
-0 0 0 4286550132
-0 0 0 4286550132
-0 0 0 4286550132
-0 0 0 4286550132
-0 0 0 4286550132
-0 0 0 4286550132
-0 0 0 4286550132
-0 0 0 4286550132
-0 0 0 4286550132
-0 0 0 4286550132
-0 0 0 4286550132
-0 0 0 4286550132
-0 0 0 4286550132
-0 0 0 4286550132
-0 0 0 4286550132
-0 0 0 4286550132
-0 0 0 4286550132
-0 0 0 4286550132
-0 0 0 4286550132
-0 0 0 4286550132
-0.24646971 0.041343529 0.505 4280758832
-0.24485147 0.041343529 0.505 4280693039
-0.24275158 0.041261662 0.50400001 4280758832
-0.241615 0.041343529 0.505 4280758832
-0.23999673 0.041343529 0.505 4280758832
-0.23837849 0.041343529 0.505 4280758064
-0.23676026 0.041343529 0.505 4280889650
-0.23514202 0.041343529 0.505 4280889648
-0.23352377 0.041343529 0.505 4280889648
-0.23236476 0.041425399 0.50600004 4280823342
-0.23074332 0.041425399 0.50600004 4280954928
-0.22912188 0.041425399 0.50600004 4280889135
-0.22750042 0.041425399 0.50600004 4280889135
-0.22587898 0.041425399 0.50600004 4280954928
-0.22381431 0.041343529 0.505 4280954928
-0.22219607 0.041343529 0.505 4280889648
-0.22057784 0.041343529 0.505 4280823855
-0.21852601 0.041261662 0.50400001 4280889648
-0.21691097 0.041261662 0.50400001 4280889648
-0.21486875 0.041179795 0.50300002 4280889648
-0.21283296 0.041097924 0.50200003 4280823855
-0.21080357 0.041016057 0.50100005 4280823855
-0.20919815 0.041016057 0.50100005 4280889648
-0.20759273 0.041016057 0.50100005 4280823855
-0.20557612 0.040934186 0.5 4280889648
-0.2039739 0.040934186 0.5 4280823855
-0.20237169 0.040934186 0.5 4280823855
-0.20076947 0.040934186 0.5 4280889648
-0.19916725 0.040934186 0.5 4280823855
-0.19756502 0.040934186 0.5 4280758062
-0.19635475 0.041016057 0.50100005 4280823855
-0.19474933 0.041016057 0.50100005 4280823855
-0.1931439 0.041016057 0.50100005 4280823855
-0.19192077 0.041097924 0.50200003 4280823855
-0.19031215 0.041097924 0.50200003 4280758062
-0.18907942 0.041179795 0.50300002 4280758062
-0.18746759 0.041179795 0.50300002 4280823857
-0.18585576 0.041179795 0.50300002 4280889650
-0.1842439 0.041179795 0.50300002 4280758064
-0.18263207 0.041179795 0.50300002 4280758064
-0.18138012 0.041261662 0.50400001 4280758064
-0.17976509 0.041261662 0.50400001 4280758064
-0.17815006 0.041261662 0.50400001 4280823857
-0.17618474 0.041179795 0.50300002 4280692271
-0.17457291 0.041179795 0.50300002 4280692271
-0.17296107 0.041179795 0.50300002 4280889650
-0.17134924 0.041179795 0.50300002 4280823857
-0.16973741 0.041179795 0.50300002 4280758064
-0.16812557 0.041179795 0.50300002 4280758064
-0.16651374 0.041179795 0.50300002 4280692271
-0.16522974 0.041261662 0.50400001 4280758062
-0.16361471 0.041261662 0.50400001 4280823855
-0.16199967 0.041261662 0.50400001 4280889648
-0.16038463 0.041261662 0.50400001 4280758062
-0.15876958 0.041261662 0.50400001 4280758062
-0.15715455 0.041261662 0.50400001 4280758062
-0.15553951 0.041261662 0.50400001 4280823855
-0.15361908 0.041179795 0.50300002 4280692269
-0.15170503 0.041097924 0.50200003 4280560683
-0.14979741 0.041016057 0.50100005 4280494890
-0.14789619 0.040934186 0.5 4280429097
-0.1457088 0.040770452 0.49800003 4280297511
-0.14324485 0.040524848 0.49500003 4280100132
-0.14022774 0.040115502 0.49000001 4279902753
-0.13752566 0.03978803 0.48600003 4279836960
-0.13456947 0.039378691 0.48100004 4279836960
-0.13136873 0.038887478 0.47500002 4279639581
-0.12847982 0.038478136 0.47000003 4279639581
-0.12562293 0.038068797 0.46500003 4279771167
-0.12359897 0.03790506 0.46300003 4279639581
-0.12211531 0.03790506 0.46300003 4279704861
-0.12037111 0.037823189 0.46200001 4279704861
-0.11863333 0.037741322 0.46100003 4279704861
-0 0 0 4286550132
-0 0 0 4286550132
-0 0 0 4286550132
-0 0 0 4286550132
-0.10400758 0.035285272 0.43100002 4282987819
-0 0 0 4286550132
-0 0 0 4286550132
-0 0 0 4286550132
-0 0 0 4286550132
-0 0 0 4286550132
-0.10327196 0.038068797 0.46500003 4287984739
-0.1017819 0.038068797 0.46500003 4287656546
-0.10029183 0.038068797 0.46500003 4287459167
-0.098801762 0.038068797 0.46500003 4287327579
-0.097311698 0.038068797 0.46500003 4286406477
-0.095615566 0.037986927 0.46400002 4284102954
-0.093925841 0.03790506 0.46300003 4281602820
-0.092442185 0.03790506 0.46300003 4286869092
-0.090958528 0.03790506 0.46300003 4288382331
-0.089474872 0.03790506 0.46300003 4289043353
-0.087801173 0.037823189 0.46200001 4289569697
-0.086320713 0.037823189 0.46200001 4289702830
-0.084840268 0.037823189 0.46200001 4290294967
-0.083359808 0.037823189 0.46200001 4290361789
-0.081879362 0.037823189 0.46200001 4290624961
-0.08057294 0.03790506 0.46300003 4290757835
-0.079089276 0.03790506 0.46300003 4290889421
-0.077773236 0.037986927 0.46400002 4291021007
-0.076286368 0.037986927 0.46400002 4290823628
-0.074799515 0.037986927 0.46400002 4290823628
-0.073312655 0.037986927 0.46400002 4287927966
-0.071980588 0.038068797 0.46500003 4291349202
-0.070490532 0.038068797 0.46500003 4291349972
-0.069148846 0.038150664 0.46600002 4292205281
-0.067655578 0.038150664 0.46600002 4292205031
-0.066162311 0.038150664 0.46600002 4292533996
-0.064669035 0.038150664 0.46600002 4292731638
-0.063311338 0.038232531 0.46700001 4292665845
-0.06181486 0.038232531 0.46700001 4292469236
-0.060318392 0.038232531 0.46700001 4292403443
-0.05882192 0.038232531 0.46700001 4292402669
-0.057448193 0.038314402 0.46800002 4292534255
-0.055948514 0.038314402 0.46800002 4285819760
-0.054448839 0.038314402 0.46800002 4285227623
-0.05294916 0.038314402 0.46800002 4285158224
-0.051449481 0.038314402 0.46800002 4289763734
-0.049949802 0.038314402 0.46800002 4292202964
-0.048346594 0.038232531 0.46700001 4292202964
-0.046850126 0.038232531 0.46700001 4291875546
-0.045353651 0.038232531 0.46700001 4292138718
-0.043857176 0.038232531 0.46700001 4292073443
-0.042360701 0.038232531 0.46700001 4292270822
-0.040864225 0.038232531 0.46700001 4291744478
-0.039367754 0.038232531 0.46700001 4291020755
-0.037952375 0.038314402 0.46800002 4291020239
-0.036452696 0.038314402 0.46800002 4292401892
-0.034953017 0.038314402 0.46800002 4292401638
-0.033453338 0.038314402 0.46800002 4292533224
-0.031953659 0.038314402 0.46800002 4292730351
-0.030453984 0.038314402 0.46800002 4292927730
-0.028954305 0.038314402 0.46800002 4292861937
-0.027513288 0.038396269 0.46900001 4292927730
-0.026010405 0.038396269 0.46900001 4292927732
-0.024559779 0.038478136 0.47000003 4292861939
-0.02310274 0.038560003 0.47100002 4292730605
-0.021639297 0.038641874 0.47200003 4292730605
-0.020126799 0.038641874 0.47200003 4292204261
-0.018653739 0.038723741 0.47300002 4292663263
-0.01713804 0.038723741 0.47300002 4290097336
-0.015622337 0.038723741 0.47300002 4282988600
-0.014106637 0.038723741 0.47300002 4288646798
-0.012590936 0.038723741 0.47300002 4289767078
-0.011051821 0.038641874 0.47200003 4291609282
-0.0095191142 0.038560003 0.47100002 4291216839
-0.0079928162 0.038478136 0.47000003 4294901247
-0.0064591253 0.038314402 0.46800002 4294901502
-0.0049594473 0.038314402 0.46800002 4294835709
-0.0034523758 0.038232531 0.46700001 4292532699
-0.0019517137 0.038150664 0.46600002 4290953667
-0.000458444 0.038150664 0.46600002 4291677390
0.0010326051 0.038068797 0.46500003 4292335320
0.0025226702 0.038068797 0.46500003 4292466906
0.0040127356 0.038068797 0.46500003 4292861664
0.0055028005 0.038068797 0.46500003 4293058273
0.0069928658 0.038068797 0.46500003 4292597722
0.0084829312 0.038068797 0.46500003 4292466134
0.0099729961 0.038068797 0.46500003 4292071376
0.01143841 0.037986927 0.46400002 4291545802
0.01292527 0.037986927 0.46400002 4291348423
0.014412131 0.037986927 0.46400002 4290887872
0.015898991 0.037986927 0.46400002 4291216837
0.017348384 0.03790506 0.46300003 4291611848
0.018832039 0.03790506 0.46300003 4291611848
0.020315697 0.03790506 0.46300003 4291742664
0.021752268 0.037823189 0.46200001 4291742664
0.023232721 0.037823189 0.46200001 4291677641
0.024659682 0.037741322 0.46100003 4291875020
0.026136929 0.037741322 0.46100003 4291875026
0.027614176 0.037741322 0.46100003 4291940819
0.029091425 0.037741322 0.46100003 4292203991
0.030502362 0.037659451 0.46000001 4292203991
0.031976402 0.037659451 0.46000001 4292466387
0.033450447 0.037659451 0.46000001 4290361011
0.034924489 0.037659451 0.46000001 4291018939
0.036398534 0.037659451 0.46000001 4292532178
0.037872575 0.037659451 0.46000001 4292532180
0.039346617 0.037659451 0.46000001 4292532180
0.040820662 0.037659451 0.46000001 4292269525
0.04220276 0.037577584 0.45900002 4292269525
0.043768749 0.037659451 0.46000001 4292269784
0.04524279 0.037659451 0.46000001 4292072405
0.046818394 0.037741322 0.46100003 4291744212
0.048295639 0.037741322 0.46100003 4291678419
0.049880855 0.037823189 0.46200001 4291612624
0.051472481 0.03790506 0.46300003 4291415245
0.052956138 0.03790506 0.46300003 4291415245
0.054557372 0.037986927 0.46400002 4291216067
0.056165017 0.038068797 0.46500003 4290623930
0.05777907 0.038150664 0.46600002 4290689974
0.059272345 0.038150664 0.46600002 4291150525
0.060896009 0.038232531 0.46700001 4291479742
0.062526084 0.038314402 0.46800002 4291611328
0.064025767 0.038314402 0.46800002 4291610815
0.065385431 0.038232531 0.46700001 4291545022
0.06688191 0.038232531 0.46700001 4291741631
0.068378381 0.038232531 0.46700001 4291939010
0.06972523 0.038150664 0.46600002 4292201921
0.071218498 0.038150664 0.46600002 4292267714
0.072711766 0.038150664 0.46600002 4291609268
0.074045807 0.038068797 0.46500003 4291280303
0.075535871 0.038068797 0.46500003 4291149231
0.076860279 0.037986927 0.46400002 4290951852
0.078347147 0.037986927 0.46400002 4291875020
0.079833999 0.037986927 0.46400002 4292138192
0.081496134 0.038068797 0.46500003 4292730083
0.082986191 0.038068797 0.46500003 4292664290
0.084657922 0.038150664 0.46600002 4290822340
0.086336069 0.038232531 0.46700001 4289177515
0.088020623 0.038314402 0.46800002 4289506219
0.089520305 0.038314402 0.46800002 4291019458
0.091214463 0.038396269 0.46900001 4291480268
0.092915036 0.038478136 0.47000003 4292006612
0.094622023 0.038560003 0.47100002 4292269532
0.096335419 0.038641874 0.47200003 4292269532
0.097847916 0.038641874 0.47200003 4292139488
0.099360414 0.038641874 0.47200003 4292665832
0.10108662 0.038723741 0.47300002 4292600300
0.10260232 0.038723741 0.47300002 4292402921
0.10411802 0.038723741 0.47300002 4292402921
0.10563372 0.038723741 0.47300002 4292008163
0.10714942 0.038723741 0.47300002 4290955475
0.10843538 0.038641874 0.47200003 4294442239
0.10994788 0.038641874 0.47200003 4294639615
0.11146038 0.038641874 0.47200003 4294573823
0.11273353 0.038560003 0.47100002 4293915897
0.11424281 0.038560003 0.47100002 4293389303
0.11550636 0.038478136 0.47000003 4293060338
0.11701244 0.038478136 0.47000003 4293586682
0.11826636 0.038396269 0.46900001 4294507775
0.11976924 0.038396269 0.46900001 4294704895
0.12127212 0.038396269 0.46900001 4293125863
0.12251323 0.038314402 0.46800002 4290888129
0.1240129 0.038314402 0.46800002 4289901234
0.12551259 0.038314402 0.46800002 4289309093
0.12701227 0.038314402 0.46800002 4291085504
0.12823734 0.038232531 0.46700001 4292335828
0.12973382 0.038232531 0.46700001 4292006863
0.13123028 0.038232531 0.46700001 4292072656
0.13272677 0.038232531 0.46700001 4291151554
0.13393582 0.038150664 0.46600002 4290624951
0.1354291 0.038150664 0.46600002 4291348674
0.13692236 0.038150664 0.46600002 4291414467
0.13841563 0.038150664 0.46600002 4291480260
0.13990891 0.038150664 0.46600002 4291348674
0.14140217 0.038150664 0.46600002 4291019709
0.14289545 0.038150664 0.46600002 4290888123
0.14438871 0.038150664 0.46600002 4290690744
0.14556894 0.038068797 0.46500003 4291215289
0.14674275 0.037986927 0.46400002 4289241499
0.14759068 0.037823189 0.46200001 4286144849
0.1484258 0.037659451 0.46000001 4283907887
0.14957397 0.037577584 0.45900002 4285484595
0.15038668 0.037413847 0.45700002 4285945146
0.15151882 0.03733198 0.45600003 4286603074
0.15230907 0.037168242 0.45400003 4286866246
0.1534252 0.037086375 0.45300001 4286866500
0.15453492 0.037004508 0.45200002 4286998086
0.15563825 0.036922637 0.45100003 4287195727
0.15778004 0.037086375 0.45300001 4287458899
0.16063768 0.037413847 0.45700002 4289695609
0.16387564 0.037823189 0.46200001 4289169265
0.16714565 0.038232531 0.46700001 4288644470
0.17044775 0.038641874 0.47200003 4288644470
0.17378184 0.039051216 0.47700003 4285354820
0.177148 0.039460558 0.48200002 4280821026
0.18091694 0.039951768 0.48800004 4281084198
0.18397643 0.040279239 0.49200001 4280757549
0.18630731 0.040442977 0.49400002 4280494377
0.18789029 0.040442977 0.49400002 4280560170
0.18985684 0.040524848 0.49500003 4280560170
0.19182979 0.040606715 0.49600002 4280494377
0.19341919 0.040606715 0.49600002 4280560170
0.19540176 0.040688582 0.49700001 4280692271
0.19699436 0.040688582 0.49700001 4280692271
0.19898655 0.040770452 0.49800003 4280823857
0.20098513 0.040852319 0.49900001 4280955443
0.20299011 0.040934186 0.5 4280758834
0.20541073 0.041097924 0.50200003 4280758834
0.20743173 0.041179795 0.50300002 4280824627
0.20945916 0.041261662 0.50400001 4280758834
0.21149299 0.041343529 0.505 4280890420
0.21311122 0.041343529 0.505 4280890420
0.21515471 0.041425399 0.50600004 4281022006
0.21677615 0.041425399 0.50600004 4281022006
0.2183976 0.041425399 0.50600004 4280890420
0.2195842 0.041343529 0.505 4280889650
0.22120245 0.041343529 0.505 4280823857
0.22237948 0.041261662 0.50400001 4280889650
0.22399451 0.041261662 0.50400001 4280823857
0.22560954 0.041261662 0.50400001 4280889650
0.22722457 0.041261662 0.50400001 4280889650
0.22883962 0.041261662 0.50400001 4280823857
0.23045467 0.041261662 0.50400001 4280823857
0.2320697 0.041261662 0.50400001 4280823857
0.23368473 0.041261662 0.50400001 4280758064
0.23529977 0.041261662 0.50400001 4280560685
0.23738487 0.041343529 0.505 4280758064
0.23900312 0.041343529 0.505 4280823603
0.24062136 0.041343529 0.505 4280757810
0.24223961 0.041343529 0.505 4280626994
0.24434075 0.041425399 0.50600004 4280561201
0.2459622 0.041425399 0.50600004 4280692787
0.24807295 0.041507266 0.50700003 4280626994
0.25019008 0.041589133 0.50800002 4280561455
0.25231364 0.041671 0.509 4280429869
0.25394469 0.041671 0.509 4280627248
0.25557575 0.041671 0.509 4280561455
0.25720683 0.041671 0.509 4280561455
0.25832936 0.041589133 0.50800002 4280298283
0.25944549 0.041507266 0.50700003 4280298283
0.26055524 0.041425399 0.50600004 4280364076
0.26114038 0.041261662 0.50400001 4280364076
0.26171276 0.041097924 0.50200003 4280429869
0.26227227 0.040934186 0.5 4280364076
0.2638745 0.040934186 0.5 4280298283
0.26494578 0.040852319 0.49900001 4280429615
0.26601064 0.040770452 0.49800003 4280363822
0.26760647 0.040770452 0.49800003 4280363822
0.26866168 0.040688582 0.49700001 4280363822
0.27079809 0.040770452 0.49800003 4280363822
0.27239391 0.040770452 0.49800003 4280363822
0.27398971 0.040770452 0.49800003 4280298029
0.27669227 0.040934186 0.5 4280298029
0.27829447 0.040934186 0.5 4280298029
0.28045651 0.041016057 0.50100005 4280298029
0.28262496 0.041097924 0.50200003 4280298029
0.28479975 0.041179795 0.50300002 4280429615
0.28755042 0.041343529 0.505 4280232236
0.28974128 0.041425399 0.50600004 4280298029
0.29193854 0.041507266 0.50700003 4280298029
0.29356319 0.041507266 0.50700003 4280298029
0.29577005 0.041589133 0.50800002 4280166443
0.29856879 0.041752875 0.51000005 4280166443
0.29961437 0.041671 0.509 4280298029
0.30183733 0.041752875 0.51000005 4280232236
0.30406663 0.041834742 0.51100004 4280166443
0 0 0 4286550132
0 0 0 4286550132
0 0 0 4286550132
0 0 0 4286550132
0 0 0 4286550132
0 0 0 4286550132
0 0 0 4286550132
0 0 0 4286550132
0 0 0 4286550132
0 0 0 4286550132
0 0 0 4286550132
0 0 0 4286550132
0 0 0 4286550132
0 0 0 4286550132
0 0 0 4286550132
0 0 0 4286550132
0 0 0 4286550132
0 0 0 4286550132
0 0 0 4286550132
0 0 0 4286550132
0 0 0 4286550132
0 0 0 4286550132
0 0 0 4286550132
0 0 0 4286550132
-0 0 0 4286550132
-0 0 0 4286550132
-0 0 0 4286550132
-0 0 0 4286550132
-0 0 0 4286550132
-0 0 0 4286550132
-0 0 0 4286550132
-0 0 0 4286550132
-0 0 0 4286550132
-0 0 0 4286550132
-0 0 0 4286550132
-0 0 0 4286550132
-0 0 0 4286550132
-0 0 0 4286550132
-0 0 0 4286550132
-0 0 0 4286550132
-0 0 0 4286550132
-0 0 0 4286550132
-0 0 0 4286550132
-0 0 0 4286550132
-0 0 0 4286550132
-0 0 0 4286550132
-0 0 0 4286550132
