# .PCD v0.7 - Point Cloud Data file format
VERSION 0.7
FIELDS x y z rgb
SIZE 4 4 4 4
TYPE F F F U
COUNT 1 1 1 1
WIDTH 1159
HEIGHT 1
VIEWPOINT 0 0 0 1 0 0 0
POINTS 1159
DATA ascii
0.14972469 0.0057863179 0.39700001 4285361519
0.15099686 0.0057863179 0.39700001 4285295726
0.15226902 0.0057863179 0.39700001 4285098347
0.15354118 0.0057863179 0.39700001 4285032554
0.15481333 0.0057863179 0.39700001 4285032554
0.15608552 0.0057863179 0.39700001 4285098347
0.15735768 0.0057863179 0.39700001 4285098347
0.15862983 0.0057863179 0.39700001 4284901738
0.15990199 0.0057863179 0.39700001 4284835945
0.16117416 0.0057863179 0.39700001 4285032554
0.16244633 0.0057863179 0.39700001 4284835175
0.16371849 0.0057863179 0.39700001 4284900968
0.16499065 0.0057863179 0.39700001 4285032554
0.16626281 0.0057863179 0.39700001 4284900968
0.16753498 0.0057863179 0.39700001 4284900968
0.16880715 0.0057863179 0.39700001 4284900968
0.17007931 0.0057863179 0.39700001 4284835175
0.17135146 0.0057863179 0.39700001 4284900968
0.17262363 0.0057863179 0.39700001 4284835175
0.17389579 0.0057863179 0.39700001 4284769382
0.17516796 0.0057863179 0.39700001 4284637796
0.17644012 0.0057863179 0.39700001 4284835175
0.17771228 0.0057863179 0.39700001 4284637796
0.17898445 0.0057863179 0.39700001 4284506978
0.18025661 0.0057863179 0.39700001 4284375392
0.18152878 0.0057863179 0.39700001 4284375392
0.18280093 0.0057863179 0.39700001 4284309599
0.18407311 0.0057863179 0.39700001 4284309599
0.18534526 0.0057863179 0.39700001 4284375392
0.18661742 0.0057863179 0.39700001 4284309599
0.18788959 0.0057863179 0.39700001 4284178013
0.18916175 0.0057863179 0.39700001 4284375392
0.19043392 0.0057863179 0.39700001 4284046427
0.19170608 0.0057863179 0.39700001 4284046427
0.19297823 0.0057863179 0.39700001 4284046427
0.1942504 0.0057863179 0.39700001 4284178013
0.19552258 0.0057863179 0.39700001 4284243806
0.19729045 0.0058008931 0.39800003 4283980634
0.19856581 0.0058008931 0.39800003 4283980634
0.19984117 0.0058008931 0.39800003 4284178013
0.20111655 0.0058008931 0.39800003 4283980634
0.20290042 0.0058154678 0.39900002 4283980634
0.204179 0.0058154678 0.39900002 4283980634
0.20545758 0.0058154678 0.39900002 4283849048
0.20725428 0.005830043 0.40000001 4283849048
0.20853606 0.005830043 0.40000001 4283717462
0.20981781 0.005830043 0.40000001 4283849048
0.21109961 0.005830043 0.40000001 4283585876
0.21291235 0.0058446182 0.40100002 4283849050
0.21419732 0.0058446182 0.40100002 4283585878
0.21601966 0.0058591934 0.40200001 4283783257
0.21730784 0.0058591934 0.40200001 4283585878
0.21859603 0.0058591934 0.40200001 4283520085
0.21988423 0.0058591934 0.40200001 4283454292
0.22117239 0.0058591934 0.40200001 4283257683
0.2224606 0.0058591934 0.40200001 4283191890
0.22430536 0.0058737686 0.40300003 4283126099
0.22559676 0.0058737686 0.40300003 4283191892
0.22745115 0.0058883433 0.40400001 4283191892
0.22874573 0.0058883433 0.40400001 4283191892
0.23004033 0.0058883433 0.40400001 4283323478
0.23133491 0.0058883433 0.40400001 4283389271
0.23262952 0.0058883433 0.40400001 4283257685
0.23392412 0.0058883433 0.40400001 4282994513
0.2352187 0.0058883433 0.40400001 4283323478
0.2365133 0.0058883433 0.40400001 4283322708
0.23780788 0.0058883433 0.40400001 4283125329
0.23851065 0.0058737686 0.40300003 4283322706
0.23980206 0.0058737686 0.40300003 4283322706
0.24049518 0.0058591934 0.40200001 4282927948
0.24178337 0.0058591934 0.40200001 4282862155
0.24307154 0.0058591934 0.40200001 4282928720
0.24435973 0.0058591934 0.40200001 4282994513
0.24564794 0.0058591934 0.40200001 4282928720
0.2469361 0.0058591934 0.40200001 4282994513
0.2482243 0.0058591934 0.40200001 4283126099
0.24951246 0.0058591934 0.40200001 4282928720
0.25080067 0.0058591934 0.40200001 4282928720
0.25208884 0.0058591934 0.40200001 4282665548
0.25337702 0.0058591934 0.40200001 4282862673
0.25466523 0.0058591934 0.40200001 4282599501
0.25595343 0.0058591934 0.40200001 4282796880
0.25788149 0.0058737686 0.40300003 4282665294
0.25917292 0.0058737686 0.40300003 4282731087
0.26046428 0.0058737686 0.40300003 4282467915
0.26175568 0.0058737686 0.40300003 4282600014
0.2636998 0.0058883433 0.40400001 4282336842
0.26499438 0.0058883433 0.40400001 4282337096
0.26628897 0.0058883433 0.40400001 4282402889
0 0 0 4282467121
0 0 0 4282467121
0 0 0 4282467121
0 0 0 4282467121
-0 0 0 4282467121
-0 0 0 4282467121
-0 0 0 4282467121
-0 0 0 4282467121
-0 0 0 4282467121
-0 0 0 4282467121
-0 0 0 4282467121
-0 0 0 4282467121
-0 0 0 4282467121
-0 0 0 4282467121
-0 0 0 4282467121
-0 0 0 4282467121
-0 0 0 4282467121
-0 0 0 4282467121
-0 0 0 4282467121
-0 0 0 4282467121
-0 0 0 4282467121
-0 0 0 4282467121
-0 0 0 4282467121
-0 0 0 4282467121
-0 0 0 4282467121
-0 0 0 4282467121
-0 0 0 4282467121
-0 0 0 4282467121
-0 0 0 4282467121
-0 0 0 4282467121
-0 0 0 4282467121
-0 0 0 4282467121
-0 0 0 4282467121
-0 0 0 4282467121
-0 0 0 4282467121
-0 0 0 4282467121
-0 0 0 4282467121
-0 0 0 4282467121
-0 0 0 4282467121
-0 0 0 4282467121
-0 0 0 4282467121
-0 0 0 4282467121
-0 0 0 4282467121
-0 0 0 4282467121
-0 0 0 4282467121
-0 0 0 4282467121
-0 0 0 4282467121
-0 0 0 4282467121
-0 0 0 4282467121
-0 0 0 4282467121
-0 0 0 4282467121
-0 0 0 4282467121
-0 0 0 4282467121
-0 0 0 4282467121
-0 0 0 4282467121
-0 0 0 4282467121
-0 0 0 4282467121
-0 0 0 4282467121
-0 0 0 4282467121
-0 0 0 4282467121
-0 0 0 4282467121
-0 0 0 4282467121
-0 0 0 4282467121
-0 0 0 4282467121
-0 0 0 4282467121
-0 0 0 4282467121
-0 0 0 4282467121
-0 0 0 4282467121
-0 0 0 4282467121
-0 0 0 4282467121
-0.18975873 0.0071473783 0.40200001 4284374875
-0.18847054 0.0071473783 0.40200001 4284374875
-0.18718237 0.0071473783 0.40200001 4284177496
-0.18589418 0.0071473783 0.40200001 4284177496
-0.18506521 0.0071651582 0.40300003 4284374875
-0.18377383 0.0071651582 0.40300003 4284440668
-0.18248244 0.0071651582 0.40300003 4284506461
-0.18119106 0.0071651582 0.40300003 4284440668
-0.18034606 0.0071829376 0.40400001 4284374875
-0.17905146 0.0071829376 0.40400001 4284374875
-0.17775686 0.0071829376 0.40400001 4284638047
-0.17689906 0.0072007175 0.40500003 4284440668
-0.17560127 0.0072007175 0.40500003 4284440668
-0.17430347 0.0072007175 0.40500003 4284440668
-0.17300567 0.0072007175 0.40500003 4284572001
-0.17170787 0.0072007175 0.40500003 4284769380
-0.17041007 0.0072007175 0.40500003 4284835173
-0.16911228 0.0072007175 0.40500003 4284769380
-0.16781448 0.0072007175 0.40500003 4284769380
-0.16651668 0.0072007175 0.40500003 4284637794
-0.16521887 0.0072007175 0.40500003 4284637794
-0.16392107 0.0072007175 0.40500003 4284769380
-0.16262329 0.0072007175 0.40500003 4284900966
-0.16132548 0.0072007175 0.40500003 4284835173
-0.16002768 0.0072007175 0.40500003 4284835173
-0.15872988 0.0072007175 0.40500003 4284835173
-0.15743208 0.0072007175 0.40500003 4284835173
-0.15613429 0.0072007175 0.40500003 4285032552
-0.15483648 0.0072007175 0.40500003 4285229931
-0.15353869 0.0072007175 0.40500003 4285295724
-0.15186498 0.0071829376 0.40400001 4285098345
-0.15057039 0.0071829376 0.40400001 4285098345
-0.14927579 0.0071829376 0.40400001 4285229931
-0.1479812 0.0071829376 0.40400001 4285032552
-0.1466866 0.0071829376 0.40400001 4285427310
-0.145392 0.0071829376 0.40400001 4285361517
-0.14374074 0.0071651582 0.40300003 4285493103
-0.14244935 0.0071651582 0.40300003 4285361519
-0.14115795 0.0071651582 0.40300003 4285229933
-0.13986658 0.0071651582 0.40300003 4285229933
-0.13857518 0.0071651582 0.40300003 4285361519
-0.13694313 0.0071473783 0.40200001 4285361517
-0.13565496 0.0071473783 0.40200001 4285098345
-0.13436675 0.0071473783 0.40200001 4285098345
-0.13307858 0.0071473783 0.40200001 4285229931
-0.13179038 0.0071473783 0.40200001 4285361517
-0.13050221 0.0071473783 0.40200001 4285295724
-0.1288926 0.0071295989 0.40100002 4285229931
-0.12760761 0.0071295989 0.40100002 4285295724
-0.12632263 0.0071295989 0.40100002 4285361517
-0.12503766 0.0071295989 0.40100002 4285361517
-0.12375268 0.0071295989 0.40100002 4285361517
-0.1224677 0.0071295989 0.40100002 4285098345
-0.1211827 0.0071295989 0.40100002 4285361517
-0.11989772 0.0071295989 0.40100002 4285229931
-0.11861274 0.0071295989 0.40100002 4285229931
-0.11732777 0.0071295989 0.40100002 4285295724
-0.11604279 0.0071295989 0.40100002 4285098345
-0.1147578 0.0071295989 0.40100002 4285295724
-0.11347282 0.0071295989 0.40100002 4285295724
-0.11218784 0.0071295989 0.40100002 4285493103
-0.11090286 0.0071295989 0.40100002 4285427310
-0.10961789 0.0071295989 0.40100002 4285493103
-0.10833289 0.0071295989 0.40100002 4285493103
-0.10704792 0.0071295989 0.40100002 4285427310
-0.10576294 0.0071295989 0.40100002 4285427310
-0.10447796 0.0071295989 0.40100002 4285493103
-0.10319298 0.0071295989 0.40100002 4285493103
-0.10190799 0.0071295989 0.40100002 4285690482
-0.10062301 0.0071295989 0.40100002 4285558896
-0.099338032 0.0071295989 0.40100002 4285690482
-0.098053053 0.0071295989 0.40100002 4285558896
-0.096768074 0.0071295989 0.40100002 4285427310
-0.095483094 0.0071295989 0.40100002 4285427310
-0.094198108 0.0071295989 0.40100002 4285558896
-0.092913128 0.0071295989 0.40100002 4285558896
-0.091399647 0.007111819 0.40000001 4285493103
-0.090117864 0.007111819 0.40000001 4285493103
-0.088836096 0.007111819 0.40000001 4285558896
-0.087554313 0.007111819 0.40000001 4285558896
-0.086272538 0.007111819 0.40000001 4285558639
-0.084990762 0.007111819 0.40000001 4285558639
-0.083918259 0.0071295989 0.40100002 4285361517
-0.082633279 0.0071295989 0.40100002 4285361517
-0.0813483 0.0071295989 0.40100002 4285427310
-0.080063321 0.0071295989 0.40100002 4285427310
-0.078778334 0.0071295989 0.40100002 4285427310
-0.077493355 0.0071295989 0.40100002 4285558896
-0.076208375 0.0071295989 0.40100002 4285558896
-0.075110234 0.0071473783 0.40200001 4285756275
-0.073822051 0.0071473783 0.40200001 4285558896
-0.072533861 0.0071473783 0.40200001 4285427310
-0.071245678 0.0071473783 0.40200001 4285493103
-0.069957495 0.0071473783 0.40200001 4285493103
-0.068669304 0.0071473783 0.40200001 4285493103
-0.067381121 0.0071473783 0.40200001 4285493103
-0.066092931 0.0071473783 0.40200001 4285427310
-0.064804748 0.0071473783 0.40200001 4285690482
-0.063674569 0.0071651582 0.40300003 4285558896
-0.062383179 0.0071651582 0.40300003 4285690482
-0.061091792 0.0071651582 0.40300003 4285493103
-0.059800398 0.0071651582 0.40300003 4285427310
-0.058654193 0.0071829376 0.40400001 4285887861
-0.057359599 0.0071829376 0.40400001 4285558896
-0.056065001 0.0071829376 0.40400001 4285427310
-0.05477041 0.0071829376 0.40400001 4285756275
-0.053475812 0.0071829376 0.40400001 4285493103
-0.052181222 0.0071829376 0.40400001 4285427310
-0.050886627 0.0071829376 0.40400001 4285427310
-0.049592029 0.0071829376 0.40400001 4285558896
-0.048297435 0.0071829376 0.40400001 4285558639
-0.047002845 0.0071829376 0.40400001 4285427053
-0.04570825 0.0071829376 0.40400001 4285295467
-0.044303723 0.0071651582 0.40300003 4285032295
-0.043012332 0.0071651582 0.40300003 4284703332
-0.041617412 0.0071473783 0.40200001 4284505953
-0.040329229 0.0071473783 0.40200001 4284374367
-0.038943928 0.0071295989 0.40100002 4284176988
-0.037565034 0.007111819 0.40000001 4283979866
-0.036192548 0.00709404 0.39900002 4283979866
-0.034913976 0.00709404 0.39900002 4284045657
-0.033298209 0.0070229215 0.39500001 4284177243
-0.031789169 0.0069695832 0.39200002 4284242779
-0 0 0 4282467121
-0 0 0 4282467121
-0.027377412 0.0068095671 0.38300002 4284373846
-0.02594528 0.0067562284 0.38000003 4294046691
-0.024597449 0.0067206696 0.37800002 4294967281
-0.0233243 0.0067028897 0.377 4294901753
-0.022116225 0.0067028897 0.377 4294901753
-0.020908151 0.0067028897 0.377 4294901755
-0.019700076 0.0067028897 0.377 4294901755
-0.018492002 0.0067028897 0.377 4294901755
-0.017283928 0.0067028897 0.377 4294901755
-0.016075853 0.0067028897 0.377 4294901755
-0.014828342 0.0066851103 0.37600002 4294901755
-0.013623473 0.0066851103 0.37600002 4294901755
-0.012418603 0.0066851103 0.37600002 4294901755
-0.011213733 0.0066851103 0.37600002 4294901755
-0.010008863 0.0066851103 0.37600002 4294901755
-0.0088039925 0.0066851103 0.37600002 4294901755
-0.0075991228 0.0066851103 0.37600002 4294901755
-0.0063942531 0.0066851103 0.37600002 4294901755
-0.0051893829 0.0066851103 0.37600002 4294901755
-0.0039845132 0.0066851103 0.37600002 4294901755
-0.0027722507 0.0066673309 0.37500003 4294901755
-0.0015705851 0.0066673309 0.37500003 4294901755
-0.00036891954 0.0066673309 0.37500003 4294901755
0.00083274598 0.0066673309 0.37500003 4294901755
0.0020344115 0.0066673309 0.37500003 4294901755
0.003236077 0.0066673309 0.37500003 4294901755
0.0044377423 0.0066673309 0.37500003 4294901755
0.0056394082 0.0066673309 0.37500003 4294901755
0.0068410737 0.0066673309 0.37500003 4294901755
0.0080427388 0.0066673309 0.37500003 4294901755
0.0092444047 0.0066673309 0.37500003 4294901755
0.01044607 0.0066673309 0.37500003 4294901755
0.011647736 0.0066673309 0.37500003 4294901753
0.012849402 0.0066673309 0.37500003 4294901753
0.014051068 0.0066673309 0.37500003 4294901753
0.015252732 0.0066673309 0.37500003 4294901753
0.016454399 0.0066673309 0.37500003 4294901751
0.017656064 0.0066673309 0.37500003 4294901751
0.018857729 0.0066673309 0.37500003 4294901749
0.020005902 0.006649551 0.37400001 4294836212
0.021204362 0.006649551 0.37400001 4294836210
0.022402825 0.006649551 0.37400001 4294901747
0.023601286 0.006649551 0.37400001 4294901745
0.024799747 0.006649551 0.37400001 4294836208
0.025998205 0.006649551 0.37400001 4294901745
0.027196668 0.006649551 0.37400001 4294836208
0.028319208 0.0066317716 0.37300003 4294901745
0.029514464 0.0066317716 0.37300003 4294836208
0.030709721 0.0066317716 0.37300003 4294770669
0.031904977 0.0066317716 0.37300003 4294836206
0.033100232 0.0066317716 0.37300003 4294901743
0.034295492 0.0066317716 0.37300003 4294836206
0.035490748 0.0066317716 0.37300003 4294901745
0.036686003 0.0066317716 0.37300003 4294836208
0.037881263 0.0066317716 0.37300003 4294901745
0.039181277 0.006649551 0.37400001 4294901745
0.04037974 0.006649551 0.37400001 4294901747
0.0415782 0.006649551 0.37400001 4294901747
0.042776663 0.006649551 0.37400001 4294901749
0.043975122 0.006649551 0.37400001 4294901749
0.045173582 0.006649551 0.37400001 4294901751
0.046372045 0.006649551 0.37400001 4294901751
0.047570508 0.006649551 0.37400001 4294901753
0.048768967 0.006649551 0.37400001 4294901753
0.049967427 0.006649551 0.37400001 4294836214
0.05116589 0.006649551 0.37400001 4294901751
0.052364349 0.006649551 0.37400001 4294901749
0.053562813 0.006649551 0.37400001 4294901749
0.054761272 0.006649551 0.37400001 4294901751
0.055959731 0.006649551 0.37400001 4294901751
0.057158194 0.006649551 0.37400001 4294901751
0.058356654 0.006649551 0.37400001 4294901751
0.059555117 0.006649551 0.37400001 4294901751
0.060753576 0.006649551 0.37400001 4294901751
0.061952036 0.006649551 0.37400001 4294901751
0.063150503 0.006649551 0.37400001 4294901751
0.064348958 0.006649551 0.37400001 4294901751
0.065547422 0.006649551 0.37400001 4294901751
0.066924348 0.0066673309 0.37500003 4294901751
0.068126015 0.0066673309 0.37500003 4294901751
0.069327682 0.0066673309 0.37500003 4294901751
0.071093582 0.0067206696 0.37800002 4294901753
0.072878703 0.0067740078 0.38100001 4294901753
0.074683055 0.0068273465 0.384 4294901749
0.076506637 0.0068806852 0.38700002 4294901749
0.078349449 0.0069340239 0.39000002 4284242514
0.080211475 0.0069873622 0.39300001 4284308307
0.082092747 0.0070407013 0.39600003 4284308307
0.083993226 0.00709404 0.39900002 4284111450
0.085699223 0.0071295989 0.40100002 4284177243
0.08698421 0.0071295989 0.40100002 4283914073
0.088269189 0.0071295989 0.40100002 4283979866
0.089554176 0.0071295989 0.40100002 4284506212
0.090839148 0.0071295989 0.40100002 4284769384
0.092124127 0.0071295989 0.40100002 4284770154
0.093409114 0.0071295989 0.40100002 4284901740
0.094694093 0.0071295989 0.40100002 4285164912
0.09597908 0.0071295989 0.40100002 4285362291
0.097264059 0.0071295989 0.40100002 4285230705
0.098549038 0.0071295989 0.40100002 4285099119
0.099585049 0.007111819 0.40000001 4285099119
0.10086683 0.007111819 0.40000001 4285296498
0.10214861 0.007111819 0.40000001 4285230705
0.10343038 0.007111819 0.40000001 4285822842
0.10471215 0.007111819 0.40000001 4285362291
0.10599393 0.007111819 0.40000001 4285296498
0.10727572 0.007111819 0.40000001 4285559670
0.10855749 0.007111819 0.40000001 4285296498
0.11011387 0.0071295989 0.40100002 4285099119
0.11139885 0.0071295989 0.40100002 4285164912
0.11268383 0.0071295989 0.40100002 4285296498
0.11368459 0.007111819 0.40000001 4285428084
0.11496637 0.007111819 0.40000001 4285362289
0.11624815 0.007111819 0.40000001 4285296496
0.11752992 0.007111819 0.40000001 4285296496
0.1188117 0.007111819 0.40000001 4285428082
0.12009348 0.007111819 0.40000001 4285296496
0.12137526 0.007111819 0.40000001 4285164910
0.12265702 0.007111819 0.40000001 4285427312
0.1239388 0.007111819 0.40000001 4285229933
0.12522058 0.007111819 0.40000001 4285295726
0.1261861 0.00709404 0.39900002 4285295726
0.12746468 0.00709404 0.39900002 4285295726
0.12874325 0.00709404 0.39900002 4285098347
0.13002181 0.00709404 0.39900002 4285295726
0.1313004 0.00709404 0.39900002 4285493105
0.13257897 0.00709404 0.39900002 4285493105
0.13385753 0.00709404 0.39900002 4285493105
0.13513611 0.00709404 0.39900002 4285493105
0.13641468 0.00709404 0.39900002 4285295726
0.13734818 0.0070762606 0.39800003 4285295726
0.13862354 0.0070762606 0.39800003 4285295726
0.1398989 0.0070762606 0.39800003 4285427312
0.14117426 0.0070762606 0.39800003 4285229933
0.14244963 0.0070762606 0.39800003 4285229933
0.14372501 0.0070762606 0.39800003 4285558898
0.14500037 0.0070762606 0.39800003 4285427312
0.14590821 0.0070584808 0.39700001 4285229933
0.14718036 0.0070584808 0.39700001 4285098347
0.14845252 0.0070584808 0.39700001 4285098347
0.14972469 0.0070584808 0.39700001 4285098347
0.15099686 0.0070584808 0.39700001 4285229933
0.15226902 0.0070584808 0.39700001 4285098347
0.15354118 0.0070584808 0.39700001 4285098347
0.15481333 0.0070584808 0.39700001 4285295726
0.15608552 0.0070584808 0.39700001 4285361519
0.15735768 0.0070584808 0.39700001 4285098347
0.15862983 0.0070584808 0.39700001 4285098347
0.15990199 0.0070584808 0.39700001 4285229933
0.16117416 0.0070584808 0.39700001 4285295726
0.16244633 0.0070584808 0.39700001 4284900968
0.16371849 0.0070584808 0.39700001 4284900968
0.16499065 0.0070584808 0.39700001 4284900968
0.16626281 0.0070584808 0.39700001 4284769382
0.16753498 0.0070584808 0.39700001 4284572003
0.16880715 0.0070584808 0.39700001 4284900968
0.17007931 0.0070584808 0.39700001 4284900968
0.17135146 0.0070584808 0.39700001 4284835175
0.17262363 0.0070584808 0.39700001 4284637796
0.17389579 0.0070584808 0.39700001 4284835175
0.17516796 0.0070584808 0.39700001 4284572003
0.17644012 0.0070584808 0.39700001 4284769382
0.17771228 0.0070584808 0.39700001 4284572003
0.17898445 0.0070584808 0.39700001 4284572003
0.18025661 0.0070584808 0.39700001 4284506210
0.18152878 0.0070584808 0.39700001 4284506210
0.18280093 0.0070584808 0.39700001 4284441185
0.18407311 0.0070584808 0.39700001 4284309599
0.18534526 0.0070584808 0.39700001 4284243806
0.18661742 0.0070584808 0.39700001 4284243806
0.18788959 0.0070584808 0.39700001 4284309599
0.18963824 0.0070762606 0.39800003 4284309599
0.1909136 0.0070762606 0.39800003 4284243806
0.19218896 0.0070762606 0.39800003 4284178013
0.19346434 0.0070762606 0.39800003 4284178013
0.19473971 0.0070762606 0.39800003 4284243806
0.19601507 0.0070762606 0.39800003 4284046427
0.19729045 0.0070762606 0.39800003 4284178013
0.19856581 0.0070762606 0.39800003 4283980634
0.19984117 0.0070762606 0.39800003 4283980634
0.20111655 0.0070762606 0.39800003 4283849048
0.20290042 0.00709404 0.39900002 4283914841
0.204179 0.00709404 0.39900002 4283914841
0.20545758 0.00709404 0.39900002 4283980634
0.20725428 0.007111819 0.40000001 4283849048
0.20853606 0.007111819 0.40000001 4283783255
0.20981781 0.007111819 0.40000001 4283783257
0.21109961 0.007111819 0.40000001 4283717464
0.21291235 0.0071295989 0.40100002 4283717464
0.21419732 0.0071295989 0.40100002 4283520085
0.21601966 0.0071473783 0.40200001 4283717464
0.21730784 0.0071473783 0.40200001 4283454292
0.21859603 0.0071473783 0.40200001 4283454292
0.21988423 0.0071473783 0.40200001 4283454292
0.22117239 0.0071473783 0.40200001 4283323476
0.2224606 0.0071473783 0.40200001 4283257683
0.22430536 0.0071651582 0.40300003 4282994513
0.22559676 0.0071651582 0.40300003 4283257685
0.22745115 0.0071829376 0.40400001 4283257685
0.22874573 0.0071829376 0.40400001 4283191892
0.23004033 0.0071829376 0.40400001 4283257685
0.23190753 0.0072007175 0.40500003 4283257685
0.23320535 0.0072007175 0.40500003 4283257685
0.23392412 0.0071829376 0.40400001 4282928720
0.2352187 0.0071829376 0.40400001 4282862927
0.2365133 0.0071829376 0.40400001 4283323478
0.23780788 0.0071829376 0.40400001 4283191892
0.23851065 0.0071651582 0.40300003 4283126097
0.23980206 0.0071651582 0.40300003 4282994511
0.24109343 0.0071651582 0.40300003 4282994511
0.24178337 0.0071473783 0.40200001 4282928718
0.24307154 0.0071473783 0.40200001 4282862927
0.24435973 0.0071473783 0.40200001 4282928720
0.24564794 0.0071473783 0.40200001 4282862673
0.2469361 0.0071473783 0.40200001 4283125845
0.2482243 0.0071473783 0.40200001 4283125845
0.24951246 0.0071473783 0.40200001 4282862673
0.25080067 0.0071473783 0.40200001 4282862673
0.25208884 0.0071473783 0.40200001 4282599501
0.25337702 0.0071473783 0.40200001 4282796880
0.25466523 0.0071473783 0.40200001 4282731087
0.25659013 0.0071651582 0.40300003 4282467915
0.25788149 0.0071651582 0.40300003 4282665294
0.25917292 0.0071651582 0.40300003 4282731089
0.26046428 0.0071651582 0.40300003 4282665296
0.26240519 0.0071829376 0.40400001 4282467915
0.2636998 0.0071829376 0.40400001 4282402122
0.26433846 0.0071651582 0.40300003 4282402889
0.26628897 0.0071829376 0.40400001 4282534475
0 0 0 4282467121
0 0 0 4282467121
0 0 0 4282467121
0 0 0 4282467121
-0 0 0 4282467121
-0 0 0 4282467121
-0 0 0 4282467121
-0 0 0 4282467121
-0 0 0 4282467121
-0 0 0 4282467121
-0 0 0 4282467121
-0 0 0 4282467121
-0 0 0 4282467121
-0 0 0 4282467121
-0 0 0 4282467121
-0 0 0 4282467121
-0 0 0 4282467121
-0 0 0 4282467121
-0 0 0 4282467121
-0 0 0 4282467121
-0 0 0 4282467121
-0 0 0 4282467121
-0 0 0 4282467121
-0 0 0 4282467121
-0 0 0 4282467121
-0 0 0 4282467121
-0 0 0 4282467121
-0 0 0 4282467121
-0 0 0 4282467121
-0 0 0 4282467121
-0 0 0 4282467121
-0 0 0 4282467121
-0 0 0 4282467121
-0 0 0 4282467121
-0 0 0 4282467121
-0 0 0 4282467121
-0 0 0 4282467121
-0 0 0 4282467121
-0 0 0 4282467121
-0 0 0 4282467121
-0 0 0 4282467121
-0 0 0 4282467121
-0 0 0 4282467121
-0 0 0 4282467121
-0 0 0 4282467121
-0 0 0 4282467121
-0 0 0 4282467121
-0 0 0 4282467121
-0 0 0 4282467121
-0 0 0 4282467121
-0 0 0 4282467121
-0 0 0 4282467121
-0 0 0 4282467121
-0 0 0 4282467121
-0 0 0 4282467121
-0 0 0 4282467121
-0 0 0 4282467121
-0 0 0 4282467121
-0 0 0 4282467121
-0 0 0 4282467121
-0 0 0 4282467121
-0 0 0 4282467121
-0 0 0 4282467121
-0 0 0 4282467121
-0 0 0 4282467121
-0 0 0 4282467121
-0 0 0 4282467121
-0 0 0 4282467121
-0 0 0 4282467121
-0 0 0 4282467121
-0.18975873 0.0084355641 0.40200001 4284374875
-0.18847054 0.0084355641 0.40200001 4284440668
-0.18718237 0.0084355641 0.40200001 4284309082
-0.18589418 0.0084355641 0.40200001 4284374875
-0.18460599 0.0084355641 0.40200001 4284374875
-0.18377383 0.0084565487 0.40300003 4284374875
-0.18248244 0.0084565487 0.40300003 4284506204
-0.18119106 0.0084565487 0.40300003 4284440411
-0.18034606 0.0084775323 0.40400001 4284572254
-0.17905146 0.0084775323 0.40400001 4284506461
-0.17775686 0.0084775323 0.40400001 4284572254
-0.17689906 0.0084985169 0.40500003 4284572254
-0.17560127 0.0084985169 0.40500003 4284506461
-0.17430347 0.0084985169 0.40500003 4284506461
-0.17300567 0.0084985169 0.40500003 4284572254
-0.17170787 0.0084985169 0.40500003 4284638047
-0.17041007 0.0084985169 0.40500003 4284769633
-0.16911228 0.0084985169 0.40500003 4284901219
-0.16781448 0.0084985169 0.40500003 4284638047
-0.16651668 0.0084985169 0.40500003 4284835426
-0.16521887 0.0084985169 0.40500003 4284769380
-0.16392107 0.0084985169 0.40500003 4284637794
-0.16262329 0.0084985169 0.40500003 4284835173
-0.16132548 0.0084985169 0.40500003 4284835173
-0.16002768 0.0084985169 0.40500003 4284900966
-0.15872988 0.0084985169 0.40500003 4284966759
-0.15743208 0.0084985169 0.40500003 4284966759
-0.15613429 0.0084985169 0.40500003 4285032552
-0.15445416 0.0084775323 0.40400001 4284900966
-0.15315957 0.0084775323 0.40400001 4284900966
-0.15186498 0.0084775323 0.40400001 4284900966
-0.15057039 0.0084775323 0.40400001 4284835173
-0.14927579 0.0084775323 0.40400001 4285032552
-0.1479812 0.0084775323 0.40400001 4285229931
-0.1466866 0.0084775323 0.40400001 4285361517
-0.145392 0.0084775323 0.40400001 4285493103
-0.14374074 0.0084565487 0.40300003 4285098345
-0.14244935 0.0084565487 0.40300003 4285295726
-0.14115795 0.0084565487 0.40300003 4285032554
-0.13986658 0.0084565487 0.40300003 4285098347
-0.13857518 0.0084565487 0.40300003 4285295726
-0.13728379 0.0084565487 0.40300003 4285361519
-0.13565496 0.0084355641 0.40200001 4285361519
-0.13436675 0.0084355641 0.40200001 4285229933
-0.13307858 0.0084355641 0.40200001 4285229933
-0.13179038 0.0084355641 0.40200001 4285295726
-0.13050221 0.0084355641 0.40200001 4285361519
-0.12921402 0.0084355641 0.40200001 4285032552
-0.12760761 0.0084145805 0.40100002 4285295724
-0.12632263 0.0084145805 0.40100002 4285295724
-0.12503766 0.0084145805 0.40100002 4285295724
-0.12375268 0.0084145805 0.40100002 4285361517
-0.1224677 0.0084145805 0.40100002 4285361517
-0.1211827 0.0084145805 0.40100002 4285361517
-0.11989772 0.0084145805 0.40100002 4285295724
-0.11861274 0.0084145805 0.40100002 4285361517
-0.11732777 0.0084145805 0.40100002 4285361517
-0.11604279 0.0084145805 0.40100002 4285098345
-0.1147578 0.0084145805 0.40100002 4285427310
-0.11347282 0.0084145805 0.40100002 4285361517
-0.11218784 0.0084145805 0.40100002 4285427310
-0.11090286 0.0084145805 0.40100002 4285427310
-0.10961789 0.0084145805 0.40100002 4285361517
-0.10833289 0.0084145805 0.40100002 4285427310
-0.10704792 0.0084145805 0.40100002 4285361517
-0.10576294 0.0084145805 0.40100002 4285493103
-0.10447796 0.0084145805 0.40100002 4285361517
-0.10319298 0.0084145805 0.40100002 4285427310
-0.10190799 0.0084145805 0.40100002 4285493103
-0.10062301 0.0084145805 0.40100002 4285427310
-0.099338032 0.0084145805 0.40100002 4285493103
-0.098053053 0.0084145805 0.40100002 4285427310
-0.096768074 0.0084145805 0.40100002 4285427310
-0.095483094 0.0084145805 0.40100002 4285361517
-0.094198108 0.0084145805 0.40100002 4285361517
-0.092913128 0.0084145805 0.40100002 4285361517
-0.091628149 0.0084145805 0.40100002 4285361517
-0.090343162 0.0084145805 0.40100002 4285427310
-0.088836096 0.0083935959 0.40000001 4285558896
-0.087554313 0.0083935959 0.40000001 4285493103
-0.086272538 0.0083935959 0.40000001 4285493103
-0.084990762 0.0083935959 0.40000001 4285493103
-0.083918259 0.0084145805 0.40100002 4285492846
-0.082633279 0.0084145805 0.40100002 4285427053
-0.0813483 0.0084145805 0.40100002 4285427053
-0.080063321 0.0084145805 0.40100002 4285558639
-0.078778334 0.0084145805 0.40100002 4285558639
-0.077493355 0.0084145805 0.40100002 4285558639
-0.076208375 0.0084145805 0.40100002 4285756018
-0.075110234 0.0084355641 0.40200001 4285624432
-0.073822051 0.0084355641 0.40200001 4285756018
-0.072533861 0.0084355641 0.40200001 4285624432
-0.071245678 0.0084355641 0.40200001 4285558639
-0.069957495 0.0084355641 0.40200001 4285624432
-0.068669304 0.0084355641 0.40200001 4285624432
-0.067381121 0.0084355641 0.40200001 4285427053
-0.066092931 0.0084355641 0.40200001 4285427310
-0.064804748 0.0084355641 0.40200001 4285427310
-0.063674569 0.0084565487 0.40300003 4285295724
-0.062383179 0.0084565487 0.40300003 4285493103
-0.061091792 0.0084565487 0.40300003 4285690482
-0.059800398 0.0084565487 0.40300003 4285427310
-0.058654193 0.0084775323 0.40400001 4285361517
-0.057359599 0.0084775323 0.40400001 4285493103
-0.056065001 0.0084775323 0.40400001 4285361519
-0.05477041 0.0084775323 0.40400001 4285427312
-0.053475812 0.0084775323 0.40400001 4285361519
-0.052181222 0.0084775323 0.40400001 4285493105
-0.050886627 0.0084775323 0.40400001 4285558896
-0.049592029 0.0084775323 0.40400001 4285493103
-0.048297435 0.0084775323 0.40400001 4285361517
-0.047002845 0.0084775323 0.40400001 4285295724
-0.04570825 0.0084775323 0.40400001 4285098345
-0.044303723 0.0084565487 0.40300003 4284966759
-0.043012332 0.0084565487 0.40300003 4284703330
-0.041617412 0.0084355641 0.40200001 4284440158
-0.040329229 0.0084355641 0.40200001 4284636769
-0.038943928 0.0084145805 0.40100002 4284110425
-0.037565034 0.0083935959 0.40000001 4283979607
-0.036192548 0.0083726123 0.39900002 4284045400
-0.034913976 0.0083726123 0.39900002 4284111193
-0.033298209 0.0082886769 0.39500001 4284111193
-0.031789169 0.008225725 0.39200002 4284374365
-0 0 0 4282467121
-0 0 0 4282467121
-0.027377412 0.0080368686 0.38300002 4284242260
-0.02594528 0.0079739168 0.38000003 4293980644
-0.024597449 0.0079319486 0.37800002 4294967283
-0.023386169 0.0079319486 0.37800002 4294901753
-0.022116225 0.0079109641 0.377 4294901753
-0.020908151 0.0079109641 0.377 4294901755
-0.019700076 0.0079109641 0.377 4294901755
-0.018492002 0.0079109641 0.377 4294901755
-0.017283928 0.0079109641 0.377 4294901755
-0.016075853 0.0079109641 0.377 4294901755
-0.014828342 0.0078899805 0.37600002 4294901755
-0.013623473 0.0078899805 0.37600002 4294901755
-0.012418603 0.0078899805 0.37600002 4294901755
-0.011213733 0.0078899805 0.37600002 4294901755
-0.010008863 0.0078899805 0.37600002 4294901755
-0.0088039925 0.0078899805 0.37600002 4294901755
-0.0075991228 0.0078899805 0.37600002 4294901755
-0.0063942531 0.0078899805 0.37600002 4294901755
-0.0051893829 0.0078899805 0.37600002 4294901755
-0.0039845132 0.0078899805 0.37600002 4294901755
-0.0027722507 0.0078689968 0.37500003 4294901755
-0.0015747732 0.0078899805 0.37600002 4294901755
-0.00036891954 0.0078689968 0.37500003 4294901755
0.00083274598 0.0078689968 0.37500003 4294835960
0.0020344115 0.0078689968 0.37500003 4294901753
0.003236077 0.0078689968 0.37500003 4294901753
0.0044377423 0.0078689968 0.37500003 4294901753
0.0056394082 0.0078689968 0.37500003 4294901753
0.0068410737 0.0078689968 0.37500003 4294901753
0.0080427388 0.0078689968 0.37500003 4294901753
0.0092444047 0.0078689968 0.37500003 4294901753
0.01044607 0.0078689968 0.37500003 4294901753
0.011647736 0.0078689968 0.37500003 4294901751
0.012849402 0.0078689968 0.37500003 4294901751
0.014051068 0.0078689968 0.37500003 4294901751
0.015252732 0.0078689968 0.37500003 4294901751
0.016454399 0.0078689968 0.37500003 4294836210
0.017656064 0.0078689968 0.37500003 4294836210
0.018857729 0.0078689968 0.37500003 4294901747
0.020005902 0.0078480123 0.37400001 4294836210
0.021204362 0.0078480123 0.37400001 4294836208
0.022402825 0.0078480123 0.37400001 4294836208
0.023601286 0.0078480123 0.37400001 4294836206
0.024799747 0.0078480123 0.37400001 4294836206
0.025998205 0.0078480123 0.37400001 4294901743
0.027196668 0.0078480123 0.37400001 4294901743
0.028319208 0.0078270286 0.37300003 4294836206
0.029514464 0.0078270286 0.37300003 4294836206
0.030709721 0.0078270286 0.37300003 4294836206
0.031904977 0.0078270286 0.37300003 4294836206
0.033100232 0.0078270286 0.37300003 4294836206
0.034295492 0.0078270286 0.37300003 4294836206
0.035490748 0.0078270286 0.37300003 4294836206
0.036686003 0.0078270286 0.37300003 4294901743
0.037881263 0.0078270286 0.37300003 4294836208
0.039076515 0.0078270286 0.37300003 4294836208
0.04037974 0.0078480123 0.37400001 4294901745
0.0415782 0.0078480123 0.37400001 4294901745
0.042776663 0.0078480123 0.37400001 4294901749
0.043975122 0.0078480123 0.37400001 4294901749
0.045173582 0.0078480123 0.37400001 4294901751
0.046372045 0.0078480123 0.37400001 4294901751
0.047570508 0.0078480123 0.37400001 4294901751
0.048768967 0.0078480123 0.37400001 4294901751
0.049967427 0.0078480123 0.37400001 4294901751
0.05116589 0.0078480123 0.37400001 4294901751
0.052364349 0.0078480123 0.37400001 4294901751
0.053562813 0.0078480123 0.37400001 4294901751
0.054761272 0.0078480123 0.37400001 4294901751
0.055959731 0.0078480123 0.37400001 4294901751
0.057158194 0.0078480123 0.37400001 4294901751
0.058356654 0.0078480123 0.37400001 4294901751
0.059555117 0.0078480123 0.37400001 4294901751
0.060753576 0.0078480123 0.37400001 4294901751
0.061952036 0.0078480123 0.37400001 4294901751
0.063150503 0.0078480123 0.37400001 4294901751
0.064348958 0.0078480123 0.37400001 4294901751
0.065547422 0.0078480123 0.37400001 4294901751
0.066745885 0.0078480123 0.37400001 4294901751
0.068126015 0.0078689968 0.37500003 4294901753
0.069327682 0.0078689968 0.37500003 4294901753
0.071093582 0.0079319486 0.37800002 4294901751
0.072878703 0.0079949005 0.38100001 4294836214
0.074683055 0.0080578523 0.384 4294836212
0.076506637 0.008120805 0.38700002 4294901749
0.078349449 0.0081837568 0.39000002 4284572247
0.080211475 0.0082467087 0.39300001 4284111696
0.082092747 0.0083096605 0.39600003 4284111696
0.083993226 0.0083726123 0.39900002 4283914073
0.085699223 0.0084145805 0.40100002 4284177245
0.08698421 0.0084145805 0.40100002 4284045661
0.088269189 0.0084145805 0.40100002 4284374626
0.089554176 0.0084145805 0.40100002 4284506212
0.090839148 0.0084145805 0.40100002 4284835177
0.092124127 0.0084145805 0.40100002 4284835947
0.093409114 0.0084145805 0.40100002 4284835947
0.094694093 0.0084145805 0.40100002 4284967533
0.09597908 0.0084145805 0.40100002 4285099119
0.097021498 0.0083935959 0.40000001 4285164912
0.098303281 0.0083935959 0.40000001 4285164912
0.099585049 0.0083935959 0.40000001 4285099119
0.10086683 0.0083935959 0.40000001 4285164912
0.10214861 0.0083935959 0.40000001 4285099119
0.10343038 0.0083935959 0.40000001 4285230705
0.10471215 0.0083935959 0.40000001 4285428084
0.10599393 0.0083935959 0.40000001 4285559670
0.10727572 0.0083935959 0.40000001 4285428084
0.10855749 0.0083935959 0.40000001 4285230705
0.10983926 0.0083935959 0.40000001 4285164912
0.11112104 0.0083935959 0.40000001 4285296498
0.11240281 0.0083935959 0.40000001 4285296498
0.11368459 0.0083935959 0.40000001 4285230705
0.11496637 0.0083935959 0.40000001 4285099119
0.11624815 0.0083935959 0.40000001 4285296498
0.11752992 0.0083935959 0.40000001 4285362289
0.1188117 0.0083935959 0.40000001 4285691254
0.12009348 0.0083935959 0.40000001 4285296496
0.12137526 0.0083935959 0.40000001 4285230703
0.12265702 0.0083935959 0.40000001 4285229933
0.1239388 0.0083935959 0.40000001 4285361519
0.12490754 0.0083726123 0.39900002 4285493105
0.1261861 0.0083726123 0.39900002 4285361519
0.12746468 0.0083726123 0.39900002 4285361519
0.12874325 0.0083726123 0.39900002 4285295726
0.13002181 0.0083726123 0.39900002 4285361519
0.1313004 0.0083726123 0.39900002 4285493105
0.13257897 0.0083726123 0.39900002 4285558898
0.13385753 0.0083726123 0.39900002 4285427312
0.13513611 0.0083726123 0.39900002 4285361519
0.13607278 0.0083516287 0.39800003 4285427312
0.13734818 0.0083516287 0.39800003 4285361519
0.13862354 0.0083516287 0.39800003 4285295726
0.1398989 0.0083516287 0.39800003 4285295726
0.14117426 0.0083516287 0.39800003 4285229933
0.14244963 0.0083516287 0.39800003 4285361519
0.14372501 0.0083516287 0.39800003 4285493105
0.14500037 0.0083516287 0.39800003 4285361519
0.14627574 0.0083516287 0.39800003 4285361519
0.14718036 0.0083306441 0.39700001 4285295726
0.14845252 0.0083306441 0.39700001 4285361519
0.14972469 0.0083306441 0.39700001 4285361519
0.15099686 0.0083306441 0.39700001 4285229933
0.15226902 0.0083306441 0.39700001 4285098347
0.15354118 0.0083306441 0.39700001 4285229933
0.15481333 0.0083306441 0.39700001 4285098347
0.15608552 0.0083306441 0.39700001 4285032554
0.15735768 0.0083306441 0.39700001 4285098347
0.15862983 0.0083306441 0.39700001 4285098347
0.15990199 0.0083306441 0.39700001 4285032554
0.16117416 0.0083306441 0.39700001 4285295726
0.16244633 0.0083306441 0.39700001 4285032554
0.16371849 0.0083306441 0.39700001 4284835175
0.16499065 0.0083306441 0.39700001 4284900968
0.16626281 0.0083306441 0.39700001 4284966761
0.16753498 0.0083306441 0.39700001 4284835175
0.16880715 0.0083306441 0.39700001 4284835175
0.17007931 0.0083306441 0.39700001 4284966761
0.17135146 0.0083306441 0.39700001 4284770152
0.17262363 0.0083306441 0.39700001 4284770152
0.17389579 0.0083306441 0.39700001 4284638566
0.17516796 0.0083306441 0.39700001 4284704359
0.17644012 0.0083306441 0.39700001 4284506980
0.17771228 0.0083306441 0.39700001 4284441187
0.17898445 0.0083306441 0.39700001 4284637796
0.18025661 0.0083306441 0.39700001 4284572003
0.18152878 0.0083306441 0.39700001 4284572003
0.18280093 0.0083306441 0.39700001 4284572003
0.18453677 0.0083516287 0.39800003 4284506210
0.18581213 0.0083516287 0.39800003 4284440417
0.18708749 0.0083516287 0.39800003 4284374624
0.18836288 0.0083516287 0.39800003 4284309599
0.18963824 0.0083516287 0.39800003 4284309599
0.1909136 0.0083516287 0.39800003 4284046427
0.19218896 0.0083516287 0.39800003 4284178013
0.19346434 0.0083516287 0.39800003 4283980634
0.19473971 0.0083516287 0.39800003 4284178013
0.19601507 0.0083516287 0.39800003 4284243806
0.19729045 0.0083516287 0.39800003 4284178013
0.19856581 0.0083516287 0.39800003 4283980634
0.20034328 0.0083726123 0.39900002 4283849048
0.20162186 0.0083726123 0.39900002 4283849048
0.20290042 0.0083726123 0.39900002 4283914841
0.204179 0.0083726123 0.39900002 4283914841
0.20545758 0.0083726123 0.39900002 4283914841
0.20725428 0.0083935959 0.40000001 4283849048
0.20853606 0.0083935959 0.40000001 4283783255
0.20981781 0.0083935959 0.40000001 4283783257
0.21109961 0.0083935959 0.40000001 4283849050
0.21291235 0.0084145805 0.40100002 4283849050
0.21419732 0.0084145805 0.40100002 4283520085
0.21548231 0.0084145805 0.40100002 4283717464
0.21730784 0.0084355641 0.40200001 4283520085
0.21859603 0.0084355641 0.40200001 4283520085
0.21988423 0.0084355641 0.40200001 4283454292
0.22117239 0.0084355641 0.40200001 4283257683
0.2224606 0.0084355641 0.40200001 4283257683
0.22430536 0.0084565487 0.40300003 4283191890
0.22559676 0.0084565487 0.40300003 4283257683
0.22745115 0.0084775323 0.40400001 4283257683
0.22874573 0.0084775323 0.40400001 4283257683
0.23004033 0.0084775323 0.40400001 4283257683
0.23190753 0.0084985169 0.40500003 4283257683
0.23320535 0.0084985169 0.40500003 4283257683
0.23450315 0.0084985169 0.40500003 4282994511
0.2352187 0.0084775323 0.40400001 4283191890
0.2365133 0.0084775323 0.40400001 4283191892
0.23780788 0.0084775323 0.40400001 4282994513
0.23910248 0.0084775323 0.40400001 4282994511
0.23980206 0.0084565487 0.40300003 4282928718
0.24109343 0.0084565487 0.40300003 4282994511
0.24238484 0.0084565487 0.40300003 4283126097
0.24307154 0.0084355641 0.40200001 4283126099
0.24435973 0.0084355641 0.40200001 4282928720
0.24564794 0.0084355641 0.40200001 4283191638
0.2469361 0.0084355641 0.40200001 4282928466
0.2482243 0.0084355641 0.40200001 4282862673
0.24951246 0.0084355641 0.40200001 4282862673
0.25080067 0.0084355641 0.40200001 4282796880
0.25208884 0.0084355641 0.40200001 4282796880
0.25400734 0.0084565487 0.40300003 4282862673
0.25529873 0.0084565487 0.40300003 4282862673
0.25659013 0.0084565487 0.40300003 4282665294
0.25788149 0.0084565487 0.40300003 4282599501
0.25917292 0.0084565487 0.40300003 4282599501
0.26046428 0.0084565487 0.40300003 4282599501
0.26240519 0.0084775323 0.40400001 4282599501
0.2636998 0.0084775323 0.40400001 4282796880
0.26433846 0.0084565487 0.40300003 4282402376
0.26628897 0.0084775323 0.40400001 4282402376
0 0 0 4282467121
0 0 0 4282467121
0 0 0 4282467121
0 0 0 4282467121
-0 0 0 4282467121
-0 0 0 4282467121
-0 0 0 4282467121
-0 0 0 4282467121
-0 0 0 4282467121
-0 0 0 4282467121
-0 0 0 4282467121
-0 0 0 4282467121
-0 0 0 4282467121
-0 0 0 4282467121
-0 0 0 4282467121
-0 0 0 4282467121
-0 0 0 4282467121
-0 0 0 4282467121
-0 0 0 4282467121
-0 0 0 4282467121
-0 0 0 4282467121
-0 0 0 4282467121
-0 0 0 4282467121
-0 0 0 4282467121
-0 0 0 4282467121
-0 0 0 4282467121
-0 0 0 4282467121
-0 0 0 4282467121
-0 0 0 4282467121
-0 0 0 4282467121
-0 0 0 4282467121
-0 0 0 4282467121
-0 0 0 4282467121
-0 0 0 4282467121
-0 0 0 4282467121
-0 0 0 4282467121
-0 0 0 4282467121
-0 0 0 4282467121
-0 0 0 4282467121
-0 0 0 4282467121
-0 0 0 4282467121
-0 0 0 4282467121
-0 0 0 4282467121
-0 0 0 4282467121
-0 0 0 4282467121
-0 0 0 4282467121
-0 0 0 4282467121
-0 0 0 4282467121
-0 0 0 4282467121
-0 0 0 4282467121
-0 0 0 4282467121
-0 0 0 4282467121
-0 0 0 4282467121
-0 0 0 4282467121
-0 0 0 4282467121
-0 0 0 4282467121
-0 0 0 4282467121
-0 0 0 4282467121
-0 0 0 4282467121
-0 0 0 4282467121
-0 0 0 4282467121
-0 0 0 4282467121
-0 0 0 4282467121
-0 0 0 4282467121
-0 0 0 4282467121
-0 0 0 4282467121
-0 0 0 4282467121
-0 0 0 4282467121
-0 0 0 4282467121
-0 0 0 4282467121
-0 0 0 4282467121
-0.18847054 0.0097237499 0.40200001 4284374873
-0.18718237 0.0097237499 0.40200001 4284177494
-0.18589418 0.0097237499 0.40200001 4284374873
-0.18460599 0.0097237499 0.40200001 4284374875
-0.18331781 0.0097237499 0.40200001 4284309082
-0.18248244 0.0097479383 0.40300003 4284374875
-0.18119106 0.0097479383 0.40300003 4284309082
-0.17989966 0.0097479383 0.40300003 4284506461
-0.17905146 0.0097721266 0.40400001 4284572254
-0.17775686 0.0097721266 0.40400001 4284506461
-0.17646228 0.0097721266 0.40400001 4284506461
-0.17560127 0.0097963149 0.40500003 4284637794
-0.17430347 0.0097963149 0.40500003 4284506208
-0.17300567 0.0097963149 0.40500003 4284572001
-0.17170787 0.0097963149 0.40500003 4284637794
-0.17041007 0.0097963149 0.40500003 4284769380
-0.16911228 0.0097963149 0.40500003 4284637794
-0.16781448 0.0097963149 0.40500003 4284572001
-0.16651668 0.0097963149 0.40500003 4284637794
-0.16481093 0.0097721266 0.40400001 4284769380
-0.16351633 0.0097721266 0.40400001 4284637794
-0.16222173 0.0097721266 0.40400001 4284572001
-0.16092715 0.0097721266 0.40400001 4284835173
-0.15963253 0.0097721266 0.40400001 4285032552
-0.15833795 0.0097721266 0.40400001 4284900966
-0.15704335 0.0097721266 0.40400001 4285032552
-0.15574877 0.0097721266 0.40400001 4285032552
-0.15445416 0.0097721266 0.40400001 4285098345
-0.15315957 0.0097721266 0.40400001 4284966759
-0.15186498 0.0097721266 0.40400001 4284900966
-0.15057039 0.0097721266 0.40400001 4285032552
-0.14927579 0.0097721266 0.40400001 4285229931
-0.1479812 0.0097721266 0.40400001 4285361517
-0.1466866 0.0097721266 0.40400001 4285493103
-0.145392 0.0097721266 0.40400001 4285427310
-0.14374074 0.0097479383 0.40300003 4285032552
-0.14244935 0.0097479383 0.40300003 4284966759
-0.14115795 0.0097479383 0.40300003 4285229931
-0.13986658 0.0097479383 0.40300003 4285032554
-0.13857518 0.0097479383 0.40300003 4285032554
-0.13728379 0.0097479383 0.40300003 4285229933
-0.13565496 0.0097237499 0.40200001 4285229933
-0.13436675 0.0097237499 0.40200001 4285295726
-0.13307858 0.0097237499 0.40200001 4285229933
-0.13179038 0.0097237499 0.40200001 4285361519
-0.13050221 0.0097237499 0.40200001 4285229933
-0.12921402 0.0097237499 0.40200001 4285229931
-0.12792583 0.0097237499 0.40200001 4285295724
-0.12632263 0.0096995616 0.40100002 4285229931
-0.12503766 0.0096995616 0.40100002 4285098345
-0.12375268 0.0096995616 0.40100002 4285295724
-0.1224677 0.0096995616 0.40100002 4285361517
-0.1211827 0.0096995616 0.40100002 4285295724
-0.11989772 0.0096995616 0.40100002 4285295724
-0.11861274 0.0096995616 0.40100002 4285098345
-0.11732777 0.0096995616 0.40100002 4285229931
-0.11604279 0.0096995616 0.40100002 4284966759
-0.1147578 0.0096995616 0.40100002 4285295724
-0.11347282 0.0096995616 0.40100002 4285229931
-0.11218784 0.0096995616 0.40100002 4285427310
-0.11090286 0.0096995616 0.40100002 4285493103
-0.10961789 0.0096995616 0.40100002 4285427310
-0.10833289 0.0096995616 0.40100002 4285493103
-0.10704792 0.0096995616 0.40100002 4285229931
-0.10576294 0.0096995616 0.40100002 4285427310
-0.10447796 0.0096995616 0.40100002 4285427310
-0.10319298 0.0096995616 0.40100002 4285427310
-0.10190799 0.0096995616 0.40100002 4285361517
-0.10062301 0.0096995616 0.40100002 4285361517
-0.099338032 0.0096995616 0.40100002 4285361517
-0.098053053 0.0096995616 0.40100002 4285493103
-0.096768074 0.0096995616 0.40100002 4285427310
-0.095483094 0.0096995616 0.40100002 4285493103
-0.094198108 0.0096995616 0.40100002 4285361517
-0.092913128 0.0096995616 0.40100002 4285361517
-0.091628149 0.0096995616 0.40100002 4285558896
-0.090343162 0.0096995616 0.40100002 4285493103
-0.088836096 0.0096753724 0.40000001 4285427310
-0.087554313 0.0096753724 0.40000001 4285427310
-0.086272538 0.0096753724 0.40000001 4285558896
-0.084990762 0.0096753724 0.40000001 4285427310
-0.083918259 0.0096995616 0.40100002 4285295724
-0.082633279 0.0096995616 0.40100002 4285427310
-0.0813483 0.0096995616 0.40100002 4285690482
-0.080063321 0.0096995616 0.40100002 4285427310
-0.078778334 0.0096995616 0.40100002 4285493103
-0.077493355 0.0096995616 0.40100002 4285493103
-0.076208375 0.0096995616 0.40100002 4285427310
-0.074923396 0.0096995616 0.40100002 4285427310
-0.073822051 0.0097237499 0.40200001 4285493103
-0.072533861 0.0097237499 0.40200001 4285493103
-0.071245678 0.0097237499 0.40200001 4285558896
-0.069957495 0.0097237499 0.40200001 4285493103
-0.068669304 0.0097237499 0.40200001 4285427310
-0.067381121 0.0097237499 0.40200001 4285558896
-0.066092931 0.0097237499 0.40200001 4285493103
-0.064804748 0.0097237499 0.40200001 4285558896
-0.063674569 0.0097479383 0.40300003 4285361517
-0.062383179 0.0097479383 0.40300003 4285493103
-0.061091792 0.0097479383 0.40300003 4285493103
-0.059800398 0.0097479383 0.40300003 4285427310
-0.058509011 0.0097479383 0.40300003 4285493103
-0.057359599 0.0097721266 0.40400001 4285756275
-0.056065001 0.0097721266 0.40400001 4285822070
-0.05477041 0.0097721266 0.40400001 4285427312
-0.053475812 0.0097721266 0.40400001 4285558898
-0.052181222 0.0097721266 0.40400001 4285361519
-0.050886627 0.0097721266 0.40400001 4285361519
-0.049592029 0.0097721266 0.40400001 4285295726
-0.048297435 0.0097721266 0.40400001 4285493105
-0.047002845 0.0097721266 0.40400001 4285361519
-0.04570825 0.0097721266 0.40400001 4285098345
-0.044303723 0.0097479383 0.40300003 4284966759
-0.043012332 0.0097479383 0.40300003 4284703332
-0.041617412 0.0097237499 0.40200001 4284505953
-0.040329229 0.0097237499 0.40200001 4284176986
-0.038943928 0.0096995616 0.40100002 4284111193
-0.037565034 0.0096753724 0.40000001 4283913814
-0.036192548 0.0096511841 0.39900002 4284176986
-0.034913976 0.0096511841 0.39900002 4284176986
-0.033382509 0.0095786192 0.39600003 4284045400
-0.031789169 0.009481865 0.39200002 4284176986
-0 0 0 4282467121
-0 0 0 4282467121
-0.027377412 0.0092641693 0.38300002 4284308053
-0.02594528 0.0091916043 0.38000003 4293914851
-0.024597449 0.0091432277 0.37800002 4294967283
-0.023386169 0.0091432277 0.37800002 4294901753
-0.022174889 0.0091432277 0.37800002 4294901753
-0.020908151 0.0091190385 0.377 4294901755
-0.019700076 0.0091190385 0.377 4294901755
-0.018492002 0.0091190385 0.377 4294901755
-0.017283928 0.0091190385 0.377 4294901755
-0.016075853 0.0091190385 0.377 4294901755
-0.014828342 0.0090948502 0.37600002 4294901755
-0.013623473 0.0090948502 0.37600002 4294901755
-0.012418603 0.0090948502 0.37600002 4294901755
-0.011213733 0.0090948502 0.37600002 4294901755
-0.010008863 0.0090948502 0.37600002 4294901755
-0.0088039925 0.0090948502 0.37600002 4294901755
-0.0075991228 0.0090948502 0.37600002 4294901755
-0.0063942531 0.0090948502 0.37600002 4294901755
-0.0051893829 0.0090948502 0.37600002 4294901755
-0.0039845132 0.0090948502 0.37600002 4294901755
-0.0027796433 0.0090948502 0.37600002 4294901755
-0.0015705851 0.0090706628 0.37500003 4294901755
-0.00036990331 0.0090948502 0.37600002 4294901755
0.00083274598 0.0090706628 0.37500003 4294901755
0.0020344115 0.0090706628 0.37500003 4294901755
0.003236077 0.0090706628 0.37500003 4294901753
0.0044377423 0.0090706628 0.37500003 4294901753
