# .PCD v0.7 - Point Cloud Data file format
VERSION 0.7
FIELDS x y z rgb
SIZE 4 4 4 4
TYPE F F F U
COUNT 1 1 1 1
WIDTH 107
HEIGHT 1
VIEWPOINT 0 0 0 1 0 0 0
POINTS 107
DATA ascii
0 0 0 4286284392
-0.11282641 -0.10631418 0.38133001 4283122490
-0.07611654 -0.10802046 0.38445562 4285685584
-0.027235031 -0.10583081 0.39339194 4286078797
0.01366495 -0.10577933 0.39469376 4288779404
0.084142521 -0.10485169 0.39548427 4285946955
0.12765041 -0.10513956 0.38257012 4284960573
0.15279512 -0.10264897 0.37278271 4280888879
-0.11344235 -0.076379552 0.38287246 4285881676
-0.060791396 -0.08317975 0.39324984 4290557619
-0.02463807 -0.074675247 0.39397302 4291150273
0.018228633 -0.074113742 0.39392161 4291414222
0.076765008 -0.073239625 0.39442167 4291480270
0.12964109 -0.074921377 0.3866455 4288779404
0.15281926 -0.081710473 0.37094012 4280822830
-0.11247297 -0.025390238 0.38034496 4286604628
-0.073599786 -0.020859037 0.39616272 4291150785
-0.028018564 -0.026335824 0.39628559 4292006098
0.028824816 -0.014663075 0.39573833 4291940044
0.075555913 -0.024453402 0.39438993 4291677901
0.12780423 -0.023596631 0.38687363 4288977037
0.15189916 -0.029227559 0.37045875 4280559915
-0.11497294 0.026031889 0.3794122 4285816142
-0.067606732 0.0052768295 0.39660466 4291414218
-0.012392501 0.019794321 0.39787802 4291808718
0.026855117 0.02752462 0.3942169 4291348164
0.073678561 0.024922946 0.39507407 4291545282
0.12554464 0.025012193 0.38394436 4288648073
0.15146264 0.011148036 0.3686471 4280362793
-0.11454085 0.075469419 0.38215372 4284171831
-0.089041203 0.075038031 0.39325586 4290690238
-0.011668565 0.072729737 0.3962042 4291084735
0.027091863 0.078096904 0.39426392 4291019974
0.076172329 0.075358607 0.39203408 4291612627
0.12552871 0.075373709 0.3836318 4288319106
0.1508721 0.098315127 0.35933331 4279902238
-0.11517603 0.11586 0.38512453 4281872423
-0.07292904 0.11495919 0.39629859 4286936427
-0.014940213 0.11714065 0.39465645 4286408532
0.027209945 0.11871541 0.39304218 4285358164
0.075650491 0.12064096 0.39313704 4284964181
0.12293843 0.1140881 0.38022128 4284108354
0.15196648 0.1127727 0.37038893 4279901982
0.043400381 0.15188751 0.39796302 4279441431
0.050750356 0.15029411 0.39900002 4279375896
-0.0089926049 -0.15261841 0.42458332 4291744474
0.033786576 -0.15521777 0.42869291 4292205285
0.052412562 -0.15193458 0.42271426 4280295716
-0.10190488 -0.10202286 0.40315792 4281802509
-0.089950554 -0.10300692 0.40337098 4283381283
-0.01073755 -0.12845641 0.41982651 4289109918
0.029236944 -0.1279524 0.4199464 4289833900
0.057733554 -0.11960649 0.4121826 4283910205
0.11004931 -0.10298005 0.40132844 4284761910
-0.10491285 -0.075366512 0.40925649 4284892720
-0.080640875 -0.070684962 0.406573 4288713869
-0.026711272 -0.076663181 0.40178236 4287990147
0.035979748 -0.075159676 0.40280166 4290294963
0.056470118 -0.086298473 0.40270522 4289965481
0.11910979 -0.075288154 0.40214741 4288188300
-0.10491782 -0.023796707 0.40384555 4285683526
-0.075489528 -0.026495691 0.40466604 4290228912
-0.022061588 -0.023840731 0.40329787 4290887360
0.023372099 -0.029520286 0.40361995 4290689207
0.070521109 -0.029008247 0.40174419 4290690234
0.12085706 -0.034599833 0.40114245 4289702052
-0.10607628 0.025728013 0.40489894 4286407766
-0.07545606 0.027517887 0.40576947 4290229689
-0.027056821 0.026055252 0.4059155 4290689722
0.019921364 0.017376412 0.40234965 4289702053
0.080279902 0.024351692 0.40054971 4291084734
0.10313221 0.0022569443 0.40068424 4289374116
-0.10457359 0.088610366 0.40162501 4285289027
-0.067659758 0.074221559 0.40712556 4289637292
-0.033337981 0.076474056 0.40589345 4289966258
0.021350699 0.069521293 0.40119028 4290163377
0.054666262 0.055931576 0.40240279 4289701793
0.10943524 0.07130634 0.40069571 4288319625
-0.10477114 0.10934666 0.40361413 4283183907
-0.076494589 0.12348779 0.40403515 4282992194
-0.03029939 0.12143157 0.40638956 4284700751
0.0013535907 0.13990526 0.41233334 4279376151
0.067653619 0.12548055 0.40038371 4282464821
0.049168512 0.15408885 0.40000001 4279441687
0.05686041 0.15298635 0.40076312 4279375894
-0.051259674 -0.18181069 0.49900004 4279770654
-0.044970408 -0.17339832 0.49341819 4279573275
0.09670113 -0.16004807 0.4955385 4279967776
0.12012016 -0.15961015 0.49209368 4280691758
0.19795395 -0.15508208 0.49875006 4280889137
0.20506354 -0.15772581 0.49850002 4280888880
0.1189775 -0.14799796 0.49084452 4280691501
0.31291625 -0.081472412 0.49900001 4279903270
0.23810723 -0.0037855147 0.49266663 4280100391
0.2573947 -0.0043270313 0.49825707 4280231977
0.22314414 0.023795368 0.49243176 4280165670
0.25405481 0.0019376185 0.49750003 4280166697
-0.21902145 0.080163084 0.49642751 4280231204
-0.19705515 0.088651799 0.49620834 4280033826
0.21390307 0.068410538 0.49813318 4280099619
0.26034272 0.070639916 0.48805836 4279968805
0.30717057 0.073678143 0.48873231 4279640610
0.25226963 0.12399369 0.49640003 4279771168
0.31661302 0.1260466 0.49355 4279442717
-0.21748178 0.18830414 0.49689287 4281678905
-0.19651008 0.18446432 0.49733338 4279968288
0.21710196 0.16489577 0.49599999 4279705630
