# .PCD v0.7 - Point Cloud Data file format
VERSION 0.7
FIELDS x y z rgb
SIZE 4 4 4 4
TYPE F F F U
COUNT 1 1 1 1
WIDTH 1149
HEIGHT 1
VIEWPOINT 0 0 0 1 0 0 0
POINTS 1149
DATA ascii
0.27949235 0.009547716 0.45500001 4282599234
0.2809504 0.009547716 0.45500001 4282533441
0.28240839 0.009547716 0.45500001 4282467648
0.28449032 0.0095687006 0.45600003 4282599234
0.28595155 0.0095687006 0.45600003 4282730820
0.28741276 0.0095687006 0.45600003 4282533441
0.28950748 0.0095896842 0.45700002 4282664257
0.29097193 0.0095896842 0.45700002 4282861636
0.29243633 0.0095896842 0.45700002 4282730050
0.29454389 0.0096106678 0.45800003 4282730050
0.29601151 0.0096106678 0.45800003 4282598464
0 0 0 4282795570
0 0 0 4282795570
0 0 0 4282795570
0 0 0 4282795570
0 0 0 4282795570
0 0 0 4282795570
0 0 0 4282795570
0 0 0 4282795570
-0 0 0 4282795570
-0 0 0 4282795570
-0 0 0 4282795570
-0 0 0 4282795570
-0 0 0 4282795570
-0 0 0 4282795570
-0 0 0 4282795570
-0 0 0 4282795570
-0 0 0 4282795570
-0 0 0 4282795570
-0 0 0 4282795570
-0 0 0 4282795570
-0 0 0 4282795570
-0 0 0 4282795570
-0 0 0 4282795570
-0 0 0 4282795570
-0 0 0 4282795570
-0 0 0 4282795570
-0 0 0 4282795570
-0 0 0 4282795570
-0 0 0 4282795570
-0 0 0 4282795570
-0 0 0 4282795570
-0 0 0 4282795570
-0 0 0 4282795570
-0 0 0 4282795570
-0 0 0 4282795570
-0 0 0 4282795570
-0 0 0 4282795570
-0 0 0 4282795570
-0 0 0 4282795570
-0 0 0 4282795570
-0 0 0 4282795570
-0 0 0 4282795570
-0 0 0 4282795570
-0 0 0 4282795570
-0 0 0 4282795570
-0 0 0 4282795570
-0 0 0 4282795570
-0 0 0 4282795570
-0 0 0 4282795570
-0 0 0 4282795570
-0 0 0 4282795570
-0 0 0 4282795570
-0 0 0 4282795570
-0 0 0 4282795570
-0 0 0 4282795570
-0.24088031 0.010933171 0.45200002 4282599753
-0.23996161 0.010957359 0.45300001 4282665546
-0.23851001 0.010957359 0.45300001 4282665544
-0.23705839 0.010957359 0.45300001 4282665544
-0.23560679 0.010957359 0.45300001 4282927946
-0.23415516 0.010957359 0.45300001 4282796360
-0.23270354 0.010957359 0.45300001 4282665546
-0.23176244 0.010981549 0.45400003 4282665546
-0.23030762 0.010981549 0.45400003 4282797132
-0.2293569 0.011005736 0.45500001 4282994511
-0.22789887 0.011005736 0.45500001 4282928718
-0.22693853 0.011029925 0.45600003 4283191890
-0.22547731 0.011029925 0.45600003 4283257683
-0.22450732 0.011054114 0.45700002 4283191890
-0.22304289 0.011054114 0.45700002 4283323474
-0.22206333 0.011078302 0.45800003 4283257681
-0.22107734 0.01110249 0.45900002 4283257681
-0.2196065 0.01110249 0.45900002 4283257681
-0.21813565 0.01110249 0.45900002 4283323727
-0.21666482 0.01110249 0.45900002 4283323727
-0.21519399 0.01110249 0.45900002 4283192141
-0.21418877 0.011126678 0.46000001 4283389520
-0.21225232 0.01110249 0.45900002 4283389267
-0.21078147 0.01110249 0.45900002 4283455060
-0.20931064 0.01110249 0.45900002 4283717462
-0.2078398 0.01110249 0.45900002 4283783255
-0.20591936 0.011078302 0.45800003 4283717715
-0.20445172 0.011078302 0.45800003 4283717715
-0.20254087 0.011054114 0.45700002 4283717715
-0.20107645 0.011054114 0.45700002 4283783508
-0.19917524 0.011029925 0.45600003 4283783508
-0.19771402 0.011029925 0.45600003 4283783508
-0.19582242 0.011005736 0.45500001 4283915094
-0.19436438 0.011005736 0.45500001 4283849301
-0.1924824 0.010981549 0.45400003 4283915094
-0.19102758 0.010981549 0.45400003 4283915094
-0.18915521 0.010957359 0.45300001 4283980887
-0.18770359 0.010957359 0.45300001 4283980887
-0.18584083 0.010933171 0.45200002 4284046680
-0.18439242 0.010933171 0.45200002 4283915094
-0.18294401 0.010933171 0.45200002 4284046680
-0.18109408 0.010908984 0.45100003 4284046680
-0.17964888 0.010908984 0.45100003 4284046680
-0.17820366 0.010908984 0.45100003 4284244059
-0.17675845 0.010908984 0.45100003 4284178266
-0.17531326 0.010908984 0.45100003 4284243806
-0.17386806 0.010908984 0.45100003 4284309599
-0.17242284 0.010908984 0.45100003 4284046427
-0.17097765 0.010908984 0.45100003 4284243806
-0.16953245 0.010908984 0.45100003 4284243806
-0.16808724 0.010908984 0.45100003 4284178013
-0.16701153 0.010933171 0.45200002 4284243806
-0.16556312 0.010933171 0.45200002 4284309599
-0.16411471 0.010933171 0.45200002 4284309599
-0.16266631 0.010933171 0.45200002 4284309599
-0.1612179 0.010933171 0.45200002 4284375392
-0.16012296 0.010957359 0.45300001 4284375392
-0.15867135 0.010957359 0.45300001 4284375392
-0.15721974 0.010957359 0.45300001 4284506978
-0.15542427 0.010933171 0.45200002 4284441185
-0.15397586 0.010933171 0.45200002 4284375392
-0.15252747 0.010933171 0.45200002 4284441185
-0.1507448 0.010908984 0.45100003 4284375392
-0.14929961 0.010908984 0.45100003 4284441185
-0.1478544 0.010908984 0.45100003 4284375392
-0.1464092 0.010908984 0.45100003 4284638564
-0.14496399 0.010908984 0.45100003 4284638564
-0.14351879 0.010908984 0.45100003 4284770152
-0.14207359 0.010908984 0.45100003 4284835945
-0.14062838 0.010908984 0.45100003 4284901738
-0.13887458 0.010884794 0.45000002 4284901738
-0.13743258 0.010884794 0.45000002 4284704359
-0.13599056 0.010884794 0.45000002 4284638566
-0.13454857 0.010884794 0.45000002 4284770152
-0.13310657 0.010884794 0.45000002 4284770152
-0.13166457 0.010884794 0.45000002 4284704359
-0.13022257 0.010884794 0.45000002 4284704359
-0.12878057 0.010884794 0.45000002 4284901738
-0.12733857 0.010884794 0.45000002 4284901738
-0.12617636 0.010908984 0.45100003 4284835945
-0.12473115 0.010908984 0.45100003 4284835945
-0.12328596 0.010908984 0.45100003 4284901738
-0.12184074 0.010908984 0.45100003 4284704359
-0.12039554 0.010908984 0.45100003 4284704359
-0.11921408 0.010933171 0.45200002 4284770152
-0.11776568 0.010933171 0.45200002 4284770152
-0.11631727 0.010933171 0.45200002 4284770152
-0.11486886 0.010933171 0.45200002 4284835945
-0.11367138 0.010957359 0.45300001 4284901736
-0.11221977 0.010957359 0.45300001 4284835943
-0.11076816 0.010957359 0.45300001 4284967529
-0.10931654 0.010957359 0.45300001 4284901736
-0.10786494 0.010957359 0.45300001 4284901736
-0.10641332 0.010957359 0.45300001 4285099115
-0.10496171 0.010957359 0.45300001 4285164908
-0.1035101 0.010957359 0.45300001 4284901736
-0.10205849 0.010957359 0.45300001 4284901738
-0.10060687 0.010957359 0.45300001 4284967531
-0.099155262 0.010957359 0.45300001 4284967531
-0.097703651 0.010957359 0.45300001 4285099117
-0.096252032 0.010957359 0.45300001 4285099117
-0.094800428 0.010957359 0.45300001 4284901738
-0.093348816 0.010957359 0.45300001 4285295724
-0.091897205 0.010957359 0.45300001 4285427310
-0.090445593 0.010957359 0.45300001 4285229931
-0.088993974 0.010957359 0.45300001 4285295724
-0.087349117 0.010933171 0.45200002 4285295724
-0.086090758 0.010957359 0.45300001 4285229931
-0.084639139 0.010957359 0.45300001 4285295726
-0.083187535 0.010957359 0.45300001 4285295726
-0.081735916 0.010957359 0.45300001 4285229933
-0.080284305 0.010957359 0.45300001 4285427312
-0.078832701 0.010957359 0.45300001 4285362289
-0.077381082 0.010957359 0.45300001 4285296496
-0.07592947 0.010957359 0.45300001 4285362289
-0.074477859 0.010957359 0.45300001 4285362289
-0.073026247 0.010957359 0.45300001 4285362289
-0.071574636 0.010957359 0.45300001 4285099117
-0.070277825 0.010981549 0.45400003 4285229933
-0.06882301 0.010981549 0.45400003 4285427312
-0.067368187 0.010981549 0.45400003 4285427312
-0.065913372 0.010981549 0.45400003 4285690484
-0.064458564 0.010981549 0.45400003 4285558898
-0.063003741 0.010981549 0.45400003 4285493105
-0.061684497 0.011005736 0.45500001 4285493105
-0.06022647 0.011005736 0.45500001 4285690484
-0.058768455 0.011005736 0.45500001 4285493105
-0.057310436 0.011005736 0.45500001 4285493105
-0.055852409 0.011005736 0.45500001 4285427312
-0.054274842 0.010981549 0.45400003 4285690484
-0.052820031 0.010981549 0.45400003 4285558898
-0.051365212 0.010981549 0.45400003 4285690484
-0.049800459 0.010957359 0.45300001 4286151035
-0.048348844 0.010957359 0.45300001 4285887863
-0.04679371 0.010933171 0.45200002 4285822070
-0.045345303 0.010933171 0.45200002 4285558898
-0.04379978 0.010908984 0.45100003 4285229933
-0.042260662 0.010884794 0.45000002 4284637796
-0.040818661 0.010884794 0.45000002 4284440417
-0.039114155 0.010812229 0.44700003 4284177243
-0.03751317 0.010763852 0.44500002 4284440415
-0.035843913 0.010691287 0.44200003 4284571744
-0 0 0 4282795570
-0.032712441 0.010594534 0.43800002 4284768606
-0.031094451 0.010521968 0.43500003 4285426536
-0.029563963 0.010473591 0.43300003 4294967289
-0.028111368 0.010449402 0.43200001 4294967289
-0.026727049 0.010449402 0.43200001 4294901755
-0.025284067 0.010425215 0.43100002 4294901755
-0.023902953 0.010425215 0.43100002 4294901755
-0.022469584 0.010401025 0.43000001 4294901755
-0.021091674 0.010401025 0.43000001 4294901755
-0.019713765 0.010401025 0.43000001 4294901755
-0.018293213 0.010376837 0.42900002 4294901755
-0.016918506 0.010376837 0.42900002 4294901755
-0.015543803 0.010376837 0.42900002 4294901755
-0.014136069 0.010352649 0.42800003 4294901755
-0.012764568 0.010352649 0.42800003 4294901755
-0.011393067 0.010352649 0.42800003 4294901755
-0.010021566 0.010352649 0.42800003 4294901755
-0.0086500654 0.010352649 0.42800003 4294901755
-0.0072785649 0.010352649 0.42800003 4294901755
-0.0058932621 0.01032846 0.42700002 4294901755
-0.0045249658 0.01032846 0.42700002 4294901755
-0.0031566692 0.01032846 0.42700002 4294901755
-0.0017883728 0.01032846 0.42700002 4294901755
-0.00042007637 0.01032846 0.42700002 4294901755
0.00094822008 0.01032846 0.42700002 4294901755
0.0023110914 0.010304272 0.42600003 4294901755
0.0036761835 0.010304272 0.42600003 4294901755
0.0050412752 0.010304272 0.42600003 4294901755
0.0064063678 0.010304272 0.42600003 4294901755
0.0077714599 0.010304272 0.42600003 4294901755
0.009136552 0.010304272 0.42600003 4294901755
0.010501644 0.010304272 0.42600003 4294901755
0.011866735 0.010304272 0.42600003 4294901755
0.013231828 0.010304272 0.42600003 4294901755
0.01459692 0.010304272 0.42600003 4294901755
0.015962012 0.010304272 0.42600003 4294901755
0.017327104 0.010304272 0.42600003 4294901755
0.018692195 0.010304272 0.42600003 4294901755
0.020057287 0.010304272 0.42600003 4294901755
0.021422381 0.010304272 0.42600003 4294901755
0.022787472 0.010304272 0.42600003 4294901755
0.024152564 0.010304272 0.42600003 4294901755
0.025517656 0.010304272 0.42600003 4294901755
0.026882749 0.010304272 0.42600003 4294901755
0.028247841 0.010304272 0.42600003 4294901755
0.02961293 0.010304272 0.42600003 4294901755
0.030978024 0.010304272 0.42600003 4294901755
0.032343116 0.010304272 0.42600003 4294901755
0.033708207 0.010304272 0.42600003 4294901755
0.035073303 0.010304272 0.42600003 4294901755
0.036438391 0.010304272 0.42600003 4294901755
0.037803482 0.010304272 0.42600003 4294901755
0.039168578 0.010304272 0.42600003 4294901755
0.040533669 0.010304272 0.42600003 4294901755
0.041898761 0.010304272 0.42600003 4294901755
0.043263853 0.010304272 0.42600003 4294901755
0.044628944 0.010304272 0.42600003 4294901755
0.045994036 0.010304272 0.42600003 4294901755
0.047359128 0.010304272 0.42600003 4294901755
0.048609842 0.010280084 0.42500001 4294901755
0.04997173 0.010280084 0.42500001 4294901755
0.051333617 0.010280084 0.42500001 4294901755
0.052695505 0.010280084 0.42500001 4294901755
0.054057397 0.010280084 0.42500001 4294901755
0.055419281 0.010280084 0.42500001 4294901755
0.056781165 0.010280084 0.42500001 4294901755
0.058143057 0.010280084 0.42500001 4294901755
0.059644956 0.010304272 0.42600003 4294901755
0.061010052 0.010304272 0.42600003 4294901755
0.062375139 0.010304272 0.42600003 4294901755
0.063889854 0.01032846 0.42700002 4294901755
0.065410987 0.010352649 0.42800003 4294901755
0.06709455 0.010401025 0.43000001 4294901755
0.068790935 0.010449402 0.43200001 4294901755
0.070662588 0.010521968 0.43500003 4294901755
0.072387807 0.010570345 0.43700001 4284506204
0.074294709 0.01064291 0.44000003 4284506204
0.076048769 0.010691287 0.44200003 4285032554
0.077990919 0.010763852 0.44500002 4285032554
0.079773821 0.010812229 0.44700003 4285427312
0.081569545 0.010860606 0.44900003 4285558898
0.083193213 0.010884794 0.45000002 4285756277
0.084823295 0.010908984 0.45100003 4285690484
0.086268499 0.010908984 0.45100003 4285558898
0.087713704 0.010908984 0.45100003 4285953656
0.0891589 0.010908984 0.45100003 4286019449
0.090805002 0.010933171 0.45200002 4286282621
0.092253402 0.010933171 0.45200002 4286151035
0.093701817 0.010933171 0.45200002 4285887863
0.095150225 0.010933171 0.45200002 4285953656
0.096598625 0.010933171 0.45200002 4285887863
0.09804704 0.010933171 0.45200002 4285887863
0.099495441 0.010933171 0.45200002 4286019449
0.10094386 0.010933171 0.45200002 4285822070
0.10239226 0.010933171 0.45200002 4285887863
0.10384066 0.010933171 0.45200002 4285756277
0.10528907 0.010933171 0.45200002 4285558898
0.10673748 0.010933171 0.45200002 4285822070
0.10818589 0.010933171 0.45200002 4285757047
0.10939175 0.010908984 0.45100003 4285625461
0.11083695 0.010908984 0.45100003 4285691254
0.11228215 0.010908984 0.45100003 4285625461
0.11372736 0.010908984 0.45100003 4285559668
0.11517256 0.010908984 0.45100003 4285625461
0.11661776 0.010908984 0.45100003 4285625459
0.11806296 0.010908984 0.45100003 4285559666
0.11950816 0.010908984 0.45100003 4285559666
0.12095337 0.010908984 0.45100003 4285428080
0.12212718 0.010884794 0.45000002 4285625459
0.12356918 0.010884794 0.45000002 4285625459
0.12501118 0.010884794 0.45000002 4285625459
0.12645316 0.010884794 0.45000002 4285625459
0.12789518 0.010884794 0.45000002 4285559666
0.12933718 0.010884794 0.45000002 4285428080
0.13077916 0.010884794 0.45000002 4285625459
0.13222116 0.010884794 0.45000002 4285691252
0.13366318 0.010884794 0.45000002 4285559666
0.13510516 0.010884794 0.45000002 4285625459
0.13624373 0.010860606 0.44900003 4285625459
0.13768251 0.010860606 0.44900003 4285559666
0.13912131 0.010860606 0.44900003 4285625459
0.14056012 0.010860606 0.44900003 4285428080
0.1419989 0.010860606 0.44900003 4285691252
0.1434377 0.010860606 0.44900003 4285625459
0.1448765 0.010860606 0.44900003 4285428080
0.14631528 0.010860606 0.44900003 4285362287
0.14775409 0.010860606 0.44900003 4285428080
0.14919288 0.010860606 0.44900003 4285559666
0.15063167 0.010860606 0.44900003 4285559666
0.15207046 0.010860606 0.44900003 4285625459
0.15350926 0.010860606 0.44900003 4285230701
0.15494806 0.010860606 0.44900003 4285493103
0.15638685 0.010860606 0.44900003 4285295724
0.15782563 0.010860606 0.44900003 4285229931
0.15926443 0.010860606 0.44900003 4285427310
0.16070323 0.010860606 0.44900003 4285361517
0.16214202 0.010860606 0.44900003 4285229931
0.16358082 0.010860606 0.44900003 4285295724
0.16501962 0.010860606 0.44900003 4285032552
0.1664584 0.010860606 0.44900003 4284967529
0.16789719 0.010860606 0.44900003 4284901736
0.16895886 0.010836418 0.44800001 4284901736
0.17039444 0.010836418 0.44800001 4284835943
0.17183003 0.010836418 0.44800001 4284770150
0.17326561 0.010836418 0.44800001 4284770150
0.1747012 0.010836418 0.44800001 4284835943
0.17613681 0.010836418 0.44800001 4284901736
0.17757238 0.010836418 0.44800001 4284835943
0.17900798 0.010836418 0.44800001 4284835943
0.18044356 0.010836418 0.44800001 4284770150
0.18187915 0.010836418 0.44800001 4284638564
0.18331476 0.010836418 0.44800001 4284637794
0.18475033 0.010836418 0.44800001 4284637794
0.18660152 0.010860606 0.44900003 4284637794
0.18804032 0.010860606 0.44900003 4284769380
0.18947911 0.010860606 0.44900003 4284835173
0.19091791 0.010860606 0.44900003 4284506208
0.19235671 0.010860606 0.44900003 4284506208
0.19379549 0.010860606 0.44900003 4284572001
0.19523428 0.010860606 0.44900003 4284506208
0.19667308 0.010860606 0.44900003 4284506208
0.19811188 0.010860606 0.44900003 4284374622
0.1999951 0.010884794 0.45000002 4284506208
0.2014371 0.010884794 0.45000002 4284177243
0.20287909 0.010884794 0.45000002 4284111703
0.20432109 0.010884794 0.45000002 4284111703
0.20622036 0.010908984 0.45100003 4284111703
0.20766556 0.010908984 0.45100003 4284111703
0.20911075 0.010908984 0.45100003 4284111703
0.21102281 0.010933171 0.45200002 4284177496
0.21247122 0.010933171 0.45200002 4284045910
0.21391964 0.010933171 0.45200002 4284045910
0.21584451 0.010957359 0.45300001 4283980117
0.21729612 0.010957359 0.45300001 4283980117
0.21923062 0.010981549 0.45400003 4283848531
0.22068544 0.010981549 0.45400003 4283914324
0.22214027 0.010981549 0.45400003 4283716945
0.22359508 0.010981549 0.45400003 4283716945
0.2250499 0.010981549 0.45400003 4283716945
0.22650471 0.010981549 0.45400003 4283585359
0.22795953 0.010981549 0.45400003 4283585359
0.22941436 0.010981549 0.45400003 4283651152
0.23086916 0.010981549 0.45400003 4283651152
0.23232397 0.010981549 0.45400003 4283519566
0.2337788 0.010981549 0.45400003 4283585359
0.2352336 0.010981549 0.45400003 4283519566
0.23668844 0.010981549 0.45400003 4283519566
0.23814324 0.010981549 0.45400003 4283387980
0.23959807 0.010981549 0.45400003 4283387980
0.24105288 0.010981549 0.45400003 4283519566
0.24250768 0.010981549 0.45400003 4283256394
0.24396251 0.010981549 0.45400003 4283387980
0.24541731 0.010981549 0.45400003 4283387980
0.24687214 0.010981549 0.45400003 4283124808
0.24887393 0.011005736 0.45500001 4283387980
0.25033194 0.011005736 0.45500001 4283190601
0.25234336 0.011029925 0.45600003 4283190601
0.25380456 0.011029925 0.45600003 4283387980
0.25582561 0.011054114 0.45700002 4283190601
0.25729004 0.011054114 0.45700002 4283256394
0.25875446 0.011054114 0.45700002 4283190601
0.26021889 0.011054114 0.45700002 4283190601
0.26225594 0.011078302 0.45800003 4283190601
0.26372358 0.011078302 0.45800003 4283059015
0.26519123 0.011078302 0.45800003 4282993222
0.26665884 0.011078302 0.45800003 4283059015
0.26754105 0.011054114 0.45700002 4283124808
0.26900545 0.011054114 0.45700002 4282927429
0.2704699 0.011054114 0.45700002 4282861636
0.27193433 0.011054114 0.45700002 4282796613
0.27280051 0.011029925 0.45600003 4282730820
0.27426174 0.011029925 0.45600003 4282730567
0.27572295 0.011029925 0.45600003 4282862153
0.27718419 0.011029925 0.45600003 4282862406
0.27803436 0.011005736 0.45500001 4282599234
0.27949235 0.011005736 0.45500001 4282599234
0.28156787 0.011029925 0.45600003 4282796613
0.28302908 0.011029925 0.45600003 4282533441
0.28449032 0.011029925 0.45600003 4282796613
0.28657863 0.011054114 0.45700002 4282599234
0.28804305 0.011054114 0.45700002 4282533441
0.29014099 0.011078302 0.45800003 4282730820
0.29160863 0.011078302 0.45800003 4282796613
0.29371616 0.01110249 0.45900002 4282796613
0.295187 0.01110249 0.45900002 4282730050
0.29730412 0.011126678 0.46000001 4282598464
0 0 0 4282795570
0 0 0 4282795570
0 0 0 4282795570
0 0 0 4282795570
0 0 0 4282795570
0 0 0 4282795570
0 0 0 4282795570
0 0 0 4282795570
-0 0 0 4282795570
-0 0 0 4282795570
-0 0 0 4282795570
-0 0 0 4282795570
-0 0 0 4282795570
-0 0 0 4282795570
-0 0 0 4282795570
-0 0 0 4282795570
-0 0 0 4282795570
-0 0 0 4282795570
-0 0 0 4282795570
-0 0 0 4282795570
-0 0 0 4282795570
-0 0 0 4282795570
-0 0 0 4282795570
-0 0 0 4282795570
-0 0 0 4282795570
-0 0 0 4282795570
-0 0 0 4282795570
-0 0 0 4282795570
-0 0 0 4282795570
-0 0 0 4282795570
-0 0 0 4282795570
-0 0 0 4282795570
-0 0 0 4282795570
-0 0 0 4282795570
-0 0 0 4282795570
-0 0 0 4282795570
-0 0 0 4282795570
-0 0 0 4282795570
-0 0 0 4282795570
-0 0 0 4282795570
-0 0 0 4282795570
-0 0 0 4282795570
-0 0 0 4282795570
-0 0 0 4282795570
-0 0 0 4282795570
-0 0 0 4282795570
-0 0 0 4282795570
-0 0 0 4282795570
-0 0 0 4282795570
-0 0 0 4282795570
-0 0 0 4282795570
-0 0 0 4282795570
-0 0 0 4282795570
-0 0 0 4282795570
-0 0 0 4282795570
-0 0 0 4282795570
-0.23943189 0.012381579 0.45200002 4282665546
-0.23851001 0.012408971 0.45300001 4282665544
-0.23705839 0.012408971 0.45300001 4282599751
-0.23560679 0.012408971 0.45300001 4282928716
-0.23415516 0.012408971 0.45300001 4282665544
-0.23270354 0.012408971 0.45300001 4282797132
-0.23125196 0.012408971 0.45300001 4282731339
-0.23030762 0.012436365 0.45400003 4282862925
-0.22885282 0.012436365 0.45400003 4283126097
-0.22739799 0.012436365 0.45400003 4282928718
-0.22644085 0.012463757 0.45500001 4283126097
-0.22547731 0.012491151 0.45600003 4282928718
-0.22401607 0.012491151 0.45600003 4282994511
-0.22304289 0.012518543 0.45700002 4283323474
-0.22206333 0.012545936 0.45800003 4283126095
-0.22107734 0.012573329 0.45900002 4283257681
-0.2196065 0.012573329 0.45900002 4283257681
-0.21813565 0.012573329 0.45900002 4283323474
-0.21713686 0.012600721 0.46000001 4283191888
-0.21519399 0.012573329 0.45900002 4283323474
-0.21418877 0.012600721 0.46000001 4283191888
-0.21271473 0.012600721 0.46000001 4283586646
-0.21078147 0.012573329 0.45900002 4283323474
-0.20931064 0.012573329 0.45900002 4283389267
-0.2078398 0.012573329 0.45900002 4283652439
-0.20591936 0.012545936 0.45800003 4283717715
-0.20445172 0.012545936 0.45800003 4283586129
-0.20254087 0.012518543 0.45700002 4283717715
-0.20107645 0.012518543 0.45700002 4283717715
-0.19917524 0.012491151 0.45600003 4283915094
-0.19771402 0.012491151 0.45600003 4283783508
-0.19582242 0.012463757 0.45500001 4283915094
-0.19436438 0.012463757 0.45500001 4284046680
-0.1924824 0.012436365 0.45400003 4284046680
-0.19102758 0.012436365 0.45400003 4284046680
-0.18915521 0.012408971 0.45300001 4283915094
-0.18770359 0.012408971 0.45300001 4283915094
-0.18625197 0.012408971 0.45300001 4283980887
-0.18439242 0.012381579 0.45200002 4283849301
-0.18294401 0.012381579 0.45200002 4284046680
-0.18109408 0.012354186 0.45100003 4283980887
-0.17964888 0.012354186 0.45100003 4284178266
-0.17820366 0.012354186 0.45100003 4284244059
-0.17675845 0.012354186 0.45100003 4284178266
-0.17531326 0.012354186 0.45100003 4284244059
-0.17386806 0.012354186 0.45100003 4284178266
-0.17242284 0.012354186 0.45100003 4284178266
-0.17097765 0.012354186 0.45100003 4284244059
-0.16953245 0.012354186 0.45100003 4284178013
-0.16808724 0.012354186 0.45100003 4284178013
-0.16701153 0.012381579 0.45200002 4284243806
-0.16556312 0.012381579 0.45200002 4284309599
-0.16411471 0.012381579 0.45200002 4284309599
-0.16266631 0.012381579 0.45200002 4284441185
-0.16157457 0.012408971 0.45300001 4284375392
-0.16012296 0.012408971 0.45300001 4284375392
-0.15867135 0.012408971 0.45300001 4284441185
-0.15721974 0.012408971 0.45300001 4284441185
-0.15576813 0.012408971 0.45300001 4284441185
-0.15397586 0.012381579 0.45200002 4284441185
-0.15252747 0.012381579 0.45200002 4284638566
-0.15107904 0.012381579 0.45200002 4284506980
-0.14963064 0.012381579 0.45200002 4284506980
-0.1478544 0.012354186 0.45100003 4284309601
-0.1464092 0.012354186 0.45100003 4284506980
-0.14496399 0.012354186 0.45100003 4284638566
-0.14351879 0.012354186 0.45100003 4284835945
-0.14207359 0.012354186 0.45100003 4284901738
-0.14062838 0.012354186 0.45100003 4284770152
-0.13918318 0.012354186 0.45100003 4284901738
-0.13773799 0.012354186 0.45100003 4284704359
-0.13599056 0.012326793 0.45000002 4284770152
-0.13454857 0.012326793 0.45000002 4284638566
-0.13310657 0.012326793 0.45000002 4284770152
-0.13166457 0.012326793 0.45000002 4284704359
-0.13022257 0.012326793 0.45000002 4284835945
-0.12906675 0.012354186 0.45100003 4284770152
-0.12762156 0.012354186 0.45100003 4284967531
-0.12617636 0.012354186 0.45100003 4284704359
-0.12473115 0.012354186 0.45100003 4284835945
-0.12328596 0.012354186 0.45100003 4284835945
-0.1221109 0.012381579 0.45200002 4284835945
-0.12066249 0.012381579 0.45200002 4284835945
-0.11921408 0.012381579 0.45200002 4284835945
-0.11776568 0.012381579 0.45200002 4284901738
-0.11657461 0.012408971 0.45300001 4284770152
-0.11512299 0.012408971 0.45300001 4284967531
-0.11367138 0.012408971 0.45300001 4284835945
-0.11221977 0.012408971 0.45300001 4284901738
-0.11076816 0.012408971 0.45300001 4284835945
-0.10931654 0.012408971 0.45300001 4284967531
-0.10786494 0.012408971 0.45300001 4284835943
-0.10641332 0.012408971 0.45300001 4284967529
-0.10496171 0.012408971 0.45300001 4285099115
-0.1035101 0.012408971 0.45300001 4284901736
-0.10205849 0.012408971 0.45300001 4284901738
-0.10060687 0.012408971 0.45300001 4284835945
-0.099155262 0.012408971 0.45300001 4284901738
-0.097703651 0.012408971 0.45300001 4285164910
-0.096252032 0.012408971 0.45300001 4284966761
-0.094800428 0.012408971 0.45300001 4285229933
-0.093348816 0.012408971 0.45300001 4285361517
-0.091897205 0.012408971 0.45300001 4285361517
-0.090445593 0.012408971 0.45300001 4285229931
-0.088993974 0.012408971 0.45300001 4285361517
-0.08754237 0.012408971 0.45300001 4285493103
-0.086090758 0.012408971 0.45300001 4285427310
-0.084639139 0.012408971 0.45300001 4285295724
-0.083003901 0.012381579 0.45200002 4285361517
-0.081555486 0.012381579 0.45200002 4285164908
-0.080284305 0.012408971 0.45300001 4285230701
-0.078832701 0.012408971 0.45300001 4285296496
-0.077381082 0.012408971 0.45300001 4285296496
-0.07592947 0.012408971 0.45300001 4285362289
-0.074477859 0.012408971 0.45300001 4285296496
-0.073026247 0.012408971 0.45300001 4285296496
-0.071574636 0.012408971 0.45300001 4285230703
-0.070277825 0.012436365 0.45400003 4285427312
-0.06882301 0.012436365 0.45400003 4285493105
-0.067368187 0.012436365 0.45400003 4285427312
-0.065913372 0.012436365 0.45400003 4285361519
-0.064458564 0.012436365 0.45400003 4285558898
-0.063003741 0.012436365 0.45400003 4285558898
-0.061684497 0.012463757 0.45500001 4285558898
-0.06022647 0.012463757 0.45500001 4285690484
-0.058768455 0.012463757 0.45500001 4285558898
-0.057310436 0.012463757 0.45500001 4285558898
-0.055852409 0.012463757 0.45500001 4285690484
-0.054274842 0.012436365 0.45400003 4285558898
-0.052820031 0.012436365 0.45400003 4285756277
-0.051365212 0.012436365 0.45400003 4285756277
-0.049800459 0.012408971 0.45300001 4285887863
-0.048348844 0.012408971 0.45300001 4285756277
-0.04679371 0.012381579 0.45200002 4285558898
-0.045345303 0.012381579 0.45200002 4285493105
-0.04379978 0.012354186 0.45100003 4284966761
-0.042260662 0.012326793 0.45000002 4284637796
-0.040818661 0.012326793 0.45000002 4284374624
-0.039114155 0.012244615 0.44700003 4284177245
-0.03751317 0.012189829 0.44500002 4284374624
-0 0 0 4282795570
-0 0 0 4282795570
-0.032712441 0.011998079 0.43800002 4284637020
-0.03116593 0.011943293 0.43600002 4285623915
-0.029563963 0.011861114 0.43300003 4294967289
-0.028111368 0.011833721 0.43200001 4294967289
-0.026727049 0.011833721 0.43200001 4294901755
-0.025284067 0.011806329 0.43100002 4294901755
-0.023902953 0.011806329 0.43100002 4294901755
-0.022469584 0.011778935 0.43000001 4294901755
-0.021091674 0.011778935 0.43000001 4294901755
-0.019713765 0.011778935 0.43000001 4294901755
-0.018293213 0.011751543 0.42900002 4294901755
-0.016918506 0.011751543 0.42900002 4294901755
-0.015543803 0.011751543 0.42900002 4294901755
-0.014169097 0.011751543 0.42900002 4294901755
-0.012764568 0.01172415 0.42800003 4294901755
-0.011393067 0.01172415 0.42800003 4294901755
-0.010021566 0.01172415 0.42800003 4294901755
-0.0086500654 0.01172415 0.42800003 4294901755
-0.0072615584 0.011696757 0.42700002 4294901755
-0.0058932621 0.011696757 0.42700002 4294901755
-0.0045249658 0.011696757 0.42700002 4294901755
-0.0031566692 0.011696757 0.42700002 4294901755
-0.0017883728 0.011696757 0.42700002 4294901755
-0.0004190926 0.011669364 0.42600003 4294901755
0.0009459994 0.011669364 0.42600003 4294901755
0.0023110914 0.011669364 0.42600003 4294901755
0.0036761835 0.011669364 0.42600003 4294901755
0.0050412752 0.011669364 0.42600003 4294901755
0.0064063678 0.011669364 0.42600003 4294901755
0.0077714599 0.011669364 0.42600003 4294901755
0.009136552 0.011669364 0.42600003 4294901755
0.010476992 0.011641971 0.42500001 4294901755
0.011838879 0.011641971 0.42500001 4294901755
0.013200766 0.011641971 0.42500001 4294901755
0.014562654 0.011641971 0.42500001 4294901755
0.015924541 0.011641971 0.42500001 4294901755
0.017286429 0.011641971 0.42500001 4294901755
0.018648317 0.011641971 0.42500001 4294901755
0.020010203 0.011641971 0.42500001 4294901755
0.021372091 0.011641971 0.42500001 4294901755
0.022733979 0.011641971 0.42500001 4294901755
0.024095867 0.011641971 0.42500001 4294901755
0.025517656 0.011669364 0.42600003 4294901755
0.026882749 0.011669364 0.42600003 4294901755
0.028247841 0.011669364 0.42600003 4294901755
0.02961293 0.011669364 0.42600003 4294901755
0.030978024 0.011669364 0.42600003 4294901755
0.032343116 0.011669364 0.42600003 4294901755
0.033708207 0.011669364 0.42600003 4294901755
0.035073303 0.011669364 0.42600003 4294901755
0.036438391 0.011669364 0.42600003 4294901755
0.037803482 0.011669364 0.42600003 4294901755
0.039168578 0.011669364 0.42600003 4294901755
0.040533669 0.011669364 0.42600003 4294901755
0.041898761 0.011669364 0.42600003 4294901755
0.043263853 0.011669364 0.42600003 4294901755
0.044628944 0.011669364 0.42600003 4294901755
0.045994036 0.011669364 0.42600003 4294901755
0.047359128 0.011669364 0.42600003 4294901755
0.048724219 0.011669364 0.42600003 4294901755
0.050089315 0.011669364 0.42600003 4294901755
0.051333617 0.011641971 0.42500001 4294901755
0.052695505 0.011641971 0.42500001 4294901755
0.054057397 0.011641971 0.42500001 4294901755
0.055419281 0.011641971 0.42500001 4294901755
0.056914769 0.011669364 0.42600003 4294901755
0.058279864 0.011669364 0.42600003 4294901755
0.059644956 0.011669364 0.42600003 4294901755
0.061010052 0.011669364 0.42600003 4294901755
0.062521562 0.011696757 0.42700002 4294901755
0.063889854 0.011696757 0.42700002 4294901755
0.065410987 0.01172415 0.42800003 4294901755
0.06709455 0.011778935 0.43000001 4294901755
0.068790935 0.011833721 0.43200001 4294901755
0.070662588 0.0119159 0.43500003 4294901755
0.072387807 0.011970685 0.43700001 4284506204
0.074294709 0.012052864 0.44000003 4284703583
0.076048769 0.01210765 0.44200003 4285098088
0.077990919 0.012189829 0.44500002 4285098088
0.079773821 0.012244615 0.44700003 4285492846
0.081751212 0.012326793 0.45000002 4285690482
0.083193213 0.012326793 0.45000002 4285558896
0.084823295 0.012354186 0.45100003 4285558898
0.086268499 0.012354186 0.45100003 4285690484
0.087713704 0.012354186 0.45100003 4285887863
0.0891589 0.012354186 0.45100003 4285953656
0.090805002 0.012381579 0.45200002 4286348414
0.092253402 0.012381579 0.45200002 4286216828
0.093701817 0.012381579 0.45200002 4286019449
0.095150225 0.012381579 0.45200002 4285953656
0.096598625 0.012381579 0.45200002 4285822070
0.09804704 0.012381579 0.45200002 4286019449
0.099495441 0.012381579 0.45200002 4285887863
0.10094386 0.012381579 0.45200002 4285953656
0.10239226 0.012381579 0.45200002 4285822070
0.10384066 0.012381579 0.45200002 4285953656
0.10528907 0.012381579 0.45200002 4285558898
0.10673748 0.012381579 0.45200002 4285756277
0.10794654 0.012354186 0.45100003 4285757047
0.10939175 0.012354186 0.45100003 4285757047
0.11083695 0.012354186 0.45100003 4285691254
0.11228215 0.012354186 0.45100003 4285757047
0.11372736 0.012354186 0.45100003 4285428082
0.11517256 0.012354186 0.45100003 4285559668
0.11661776 0.012354186 0.45100003 4285625459
0.11780117 0.012326793 0.45000002 4285625459
0.11924317 0.012326793 0.45000002 4285625459
0.12068518 0.012326793 0.45000002 4285428080
0.12212718 0.012326793 0.45000002 4285559666
0.12356918 0.012326793 0.45000002 4285559666
0.12501118 0.012326793 0.45000002 4285625459
0.12645316 0.012326793 0.45000002 4285625459
0.12789518 0.012326793 0.45000002 4285691252
0.12933718 0.012326793 0.45000002 4285625459
0.13077916 0.012326793 0.45000002 4285559666
0.13192734 0.0122994 0.44900003 4285559666
0.13336615 0.0122994 0.44900003 4285428080
0.13480493 0.0122994 0.44900003 4285625459
0.13624373 0.0122994 0.44900003 4285757045
0.13768251 0.0122994 0.44900003 4285428080
0.13912131 0.0122994 0.44900003 4285559666
0.14056012 0.0122994 0.44900003 4285428080
0.1419989 0.0122994 0.44900003 4285428080
0.1434377 0.0122994 0.44900003 4285625459
0.1448765 0.0122994 0.44900003 4285428080
0.14631528 0.0122994 0.44900003 4285362287
0.14775409 0.0122994 0.44900003 4285559666
0.14919288 0.0122994 0.44900003 4285559666
0.15063167 0.0122994 0.44900003 4285691252
0.15207046 0.0122994 0.44900003 4285362287
0.15350926 0.0122994 0.44900003 4285559666
0.15494806 0.0122994 0.44900003 4285296494
0.15638685 0.0122994 0.44900003 4285691252
0.15782563 0.0122994 0.44900003 4285558896
0.15926443 0.0122994 0.44900003 4285427310
0.16070323 0.0122994 0.44900003 4285295724
0.16214202 0.0122994 0.44900003 4285295724
0.16358082 0.0122994 0.44900003 4285098345
0.16501962 0.0122994 0.44900003 4285361517
0.1664584 0.0122994 0.44900003 4284967529
0.16789719 0.0122994 0.44900003 4284967529
0.16895886 0.012272007 0.44800001 4284901736
0.17039444 0.012272007 0.44800001 4284835943
0.17183003 0.012272007 0.44800001 4284835943
0.17326561 0.012272007 0.44800001 4284770150
0.1747012 0.012272007 0.44800001 4284770150
0.17613681 0.012272007 0.44800001 4284967529
0.17757238 0.012272007 0.44800001 4284966759
0.17900798 0.012272007 0.44800001 4284900966
0.18044356 0.012272007 0.44800001 4284769380
0.18187915 0.012272007 0.44800001 4284769380
0.18331476 0.012272007 0.44800001 4284769380
0.18475033 0.012272007 0.44800001 4284506208
0.18660152 0.0122994 0.44900003 4284506208
0.1876215 0.012272007 0.44800001 4284769380
0.1890571 0.012272007 0.44800001 4284637794
0.19049269 0.012272007 0.44800001 4284637794
0.19235671 0.0122994 0.44900003 4284506208
0.19379549 0.0122994 0.44900003 4284572001
0.19523428 0.0122994 0.44900003 4284506208
0.19667308 0.0122994 0.44900003 4284506208
0.19811188 0.0122994 0.44900003 4284506208
0.19955067 0.0122994 0.44900003 4284308829
0.2014371 0.012326793 0.45000002 4284308829
0.20287909 0.012326793 0.45000002 4284309082
0.20432109 0.012326793 0.45000002 4284440668
0.20622036 0.012354186 0.45100003 4284309082
0.20766556 0.012354186 0.45100003 4283980117
0.20911075 0.012354186 0.45100003 4284045910
0.21102281 0.012381579 0.45200002 4284111703
0.21247122 0.012381579 0.45200002 4283980117
0.21391964 0.012381579 0.45200002 4283914324
0.21584451 0.012408971 0.45300001 4283914324
0.21729612 0.012408971 0.45300001 4283848531
0.21923062 0.012436365 0.45400003 4283914324
0.22068544 0.012436365 0.45400003 4283848531
0.22214027 0.012436365 0.45400003 4283716945
0.22359508 0.012436365 0.45400003 4283848531
0.2250499 0.012436365 0.45400003 4283716943
0.22650471 0.012436365 0.45400003 4283651150
0.22795953 0.012436365 0.45400003 4283519564
0.22941436 0.012436365 0.45400003 4283651150
0.23086916 0.012436365 0.45400003 4283453771
0.23232397 0.012436365 0.45400003 4283519564
0.2337788 0.012436365 0.45400003 4283651150
0.2352336 0.012436365 0.45400003 4283585357
0.23668844 0.012436365 0.45400003 4283585357
0.23814324 0.012436365 0.45400003 4283453771
0.23959807 0.012436365 0.45400003 4283453771
0.24105288 0.012436365 0.45400003 4283519564
0.24250768 0.012436365 0.45400003 4283519564
0.24396251 0.012436365 0.45400003 4283387980
0.24595788 0.012463757 0.45500001 4283256394
0.2474159 0.012463757 0.45500001 4283322957
0.24887393 0.012463757 0.45500001 4283322957
0.25088212 0.012491151 0.45600003 4282993992
0.25234336 0.012491151 0.45600003 4283059785
0.25380456 0.012491151 0.45600003 4283125578
0.25582561 0.012518543 0.45700002 4283059785
0.25729004 0.012518543 0.45700002 4283256394
0.25875446 0.012518543 0.45700002 4283190601
0.26078832 0.012545936 0.45800003 4283190601
0.26225594 0.012545936 0.45800003 4283190601
0.26372358 0.012545936 0.45800003 4283059015
0.26519123 0.012545936 0.45800003 4283059015
0.26665884 0.012545936 0.45800003 4282861636
0.26812649 0.012545936 0.45800003 4282861636
0.26900545 0.012518543 0.45700002 4282861636
0.2704699 0.012518543 0.45700002 4282861636
0.27193433 0.012518543 0.45700002 4282993222
0.27339876 0.012518543 0.45700002 4282664257
0.27426174 0.012491151 0.45600003 4282796613
0.27572295 0.012491151 0.45600003 4282862406
0.27718419 0.012491151 0.45600003 4282928199
0.27864543 0.012491151 0.45600003 4282796613
0.28010663 0.012491151 0.45600003 4282598981
0.28156787 0.012491151 0.45600003 4282598981
0.28364974 0.012518543 0.45700002 4282598981
0.2851142 0.012518543 0.45700002 4282533188
0.28657863 0.012518543 0.45700002 4282533441
0.28867334 0.012545936 0.45800003 4282599234
0.29077449 0.012573329 0.45900002 4282861636
0.29288203 0.012600721 0.46000001 4282861636
0.29435605 0.012600721 0.46000001 4282861636
0.29647323 0.012628115 0.46100003 4282664257
0.29859677 0.012655507 0.46200001 4282598464
0 0 0 4282795570
0 0 0 4282795570
0 0 0 4282795570
0 0 0 4282795570
0 0 0 4282795570
0 0 0 4282795570
0 0 0 4282795570
0 0 0 4282795570
-0 0 0 4282795570
-0 0 0 4282795570
-0 0 0 4282795570
-0 0 0 4282795570
-0 0 0 4282795570
-0 0 0 4282795570
-0 0 0 4282795570
-0 0 0 4282795570
-0 0 0 4282795570
-0 0 0 4282795570
-0 0 0 4282795570
-0 0 0 4282795570
-0 0 0 4282795570
-0 0 0 4282795570
-0 0 0 4282795570
-0 0 0 4282795570
-0 0 0 4282795570
-0 0 0 4282795570
-0 0 0 4282795570
-0 0 0 4282795570
-0 0 0 4282795570
-0 0 0 4282795570
-0 0 0 4282795570
-0 0 0 4282795570
-0 0 0 4282795570
-0 0 0 4282795570
-0 0 0 4282795570
-0 0 0 4282795570
-0 0 0 4282795570
-0 0 0 4282795570
-0 0 0 4282795570
-0 0 0 4282795570
-0 0 0 4282795570
-0 0 0 4282795570
-0 0 0 4282795570
-0 0 0 4282795570
-0 0 0 4282795570
-0 0 0 4282795570
-0 0 0 4282795570
-0 0 0 4282795570
-0 0 0 4282795570
-0 0 0 4282795570
-0 0 0 4282795570
-0 0 0 4282795570
-0 0 0 4282795570
-0 0 0 4282795570
-0 0 0 4282795570
-0 0 0 4282795570
-0 0 0 4282795570
-0.23798349 0.013829986 0.45200002 4282600264
-0.23653509 0.013829986 0.45200002 4282534471
-0.23508669 0.013829986 0.45200002 4282731337
-0.23415516 0.013860582 0.45300001 4282862923
-0.23270354 0.013860582 0.45300001 4282665544
-0.23125196 0.013860582 0.45300001 4282928716
-0.22980033 0.013860582 0.45300001 4282797130
-0.22885282 0.013891181 0.45400003 4282862923
-0.22739799 0.013891181 0.45400003 4282928718
-0.22644085 0.013921778 0.45500001 4282928718
-0.22547731 0.013952375 0.45600003 4282928718
-0.22401607 0.013952375 0.45600003 4283126097
-0.22304289 0.013982972 0.45700002 4283191888
-0.22206333 0.01401357 0.45800003 4283191888
-0.22107734 0.014044167 0.45900002 4283191888
-0.2196065 0.014044167 0.45900002 4283257681
-0.21813565 0.014044167 0.45900002 4283191888
-0.21713686 0.014074764 0.46000001 4283257681
-0.21566281 0.014074764 0.46000001 4283257681
-0.21418877 0.014074764 0.46000001 4283323474
-0.21271473 0.014074764 0.46000001 4283323474
-0.21078147 0.014044167 0.45900002 4283389267
-0.20931064 0.014044167 0.45900002 4283585876
-0.2078398 0.014044167 0.45900002 4283585876
-0.20591936 0.01401357 0.45800003 4283717715
-0.20445172 0.01401357 0.45800003 4283586129
-0.20254087 0.013982972 0.45700002 4283783508
-0.20107645 0.013982972 0.45700002 4283717715
-0.19917524 0.013952375 0.45600003 4283783508
-0.19771402 0.013952375 0.45600003 4283717715
-0.19582242 0.013921778 0.45500001 4283980117
-0.19436438 0.013921778 0.45500001 4284111703
-0.1924824 0.013891181 0.45400003 4283980887
-0.19102758 0.013891181 0.45400003 4283980887
-0.18915521 0.013860582 0.45300001 4283980887
-0.18770359 0.013860582 0.45300001 4284178266
-0.18584083 0.013829986 0.45200002 4283980887
-0.18439242 0.013829986 0.45200002 4284046680
-0.18294401 0.013829986 0.45200002 4283980887
-0.18109408 0.013799389 0.45100003 4283980887
-0.17964888 0.013799389 0.45100003 4284178266
-0.17820366 0.013799389 0.45100003 4284244059
-0.17675845 0.013799389 0.45100003 4284244059
-0.17531326 0.013799389 0.45100003 4284178013
-0.17386806 0.013799389 0.45100003 4284046427
-0.17242284 0.013799389 0.45100003 4284178013
-0.17097765 0.013799389 0.45100003 4284375392
-0.16953245 0.013799389 0.45100003 4284243806
-0.16808724 0.013799389 0.45100003 4284309599
-0.16701153 0.013829986 0.45200002 4284309599
-0.16556312 0.013829986 0.45200002 4284375392
-0.16411471 0.013829986 0.45200002 4284441185
-0.16302618 0.013860582 0.45300001 4284638564
-0.16157457 0.013860582 0.45300001 4284506978
-0.16012296 0.013860582 0.45300001 4284506978
-0.15867135 0.013860582 0.45300001 4284375392
-0.15721974 0.013860582 0.45300001 4284441185
-0.15576813 0.013860582 0.45300001 4284375394
-0.15431651 0.013860582 0.45300001 4284441187
-0.1528649 0.013860582 0.45300001 4284441187
-0.15107904 0.013829986 0.45200002 4284704359
-0.14963064 0.013829986 0.45200002 4284506980
-0.14818223 0.013829986 0.45200002 4284441187
-0.14673382 0.013829986 0.45200002 4284704359
-0.14528543 0.013829986 0.45200002 4284506980
-0.14351879 0.013799389 0.45100003 4284506980
-0.14207359 0.013799389 0.45100003 4284704359
-0.14062838 0.013799389 0.45100003 4284506980
-0.13918318 0.013799389 0.45100003 4284770152
-0.13773799 0.013799389 0.45100003 4284770152
-0.13629277 0.013799389 0.45100003 4284638566
-0.13484757 0.013799389 0.45100003 4284638566
-0.13340236 0.013799389 0.45100003 4284770152
-0.13195717 0.013799389 0.45100003 4284770152
-0.13051197 0.013799389 0.45100003 4284704359
-0.12906675 0.013799389 0.45100003 4284770152
-0.12762156 0.013799389 0.45100003 4284770152
-0.12617636 0.013799389 0.45100003 4284770152
-0.12473115 0.013799389 0.45100003 4284835945
-0.12328596 0.013799389 0.45100003 4284835945
-0.1221109 0.013829986 0.45200002 4284835945
-0.12066249 0.013829986 0.45200002 4284901738
-0.11921408 0.013829986 0.45200002 4284835945
-0.11776568 0.013829986 0.45200002 4284835945
-0.11657461 0.013860582 0.45300001 4284835945
-0.11512299 0.013860582 0.45300001 4284901738
-0.11367138 0.013860582 0.45300001 4284835945
-0.11221977 0.013860582 0.45300001 4284770152
-0.11076816 0.013860582 0.45300001 4284967531
-0.10931654 0.013860582 0.45300001 4284901738
-0.10786494 0.013860582 0.45300001 4284835945
-0.10641332 0.013860582 0.45300001 4284901738
-0.10496171 0.013860582 0.45300001 4284901738
-0.1035101 0.013860582 0.45300001 4284967531
-0.10205849 0.013860582 0.45300001 4284835945
-0.10060687 0.013860582 0.45300001 4284901738
-0.099155262 0.013860582 0.45300001 4285099117
-0.097703651 0.013860582 0.45300001 4284967531
-0.096252032 0.013860582 0.45300001 4285099117
-0.094800428 0.013860582 0.45300001 4285164910
-0.093348816 0.013860582 0.45300001 4285230701
-0.091897205 0.013860582 0.45300001 4285164908
-0.090445593 0.013860582 0.45300001 4285164908
-0.088993974 0.013860582 0.45300001 4285164908
-0.08754237 0.013860582 0.45300001 4285362287
-0.086090758 0.013860582 0.45300001 4285428080
-0.084639139 0.013860582 0.45300001 4285427310
-0.083003901 0.013829986 0.45200002 4285427310
-0.081555486 0.013829986 0.45200002 4285296494
-0.080284305 0.013860582 0.45300001 4285230701
-0.078832701 0.013860582 0.45300001 4285230701
-0.077381082 0.013860582 0.45300001 4285559666
-0.07592947 0.013860582 0.45300001 4285296496
-0.074477859 0.013860582 0.45300001 4285164910
-0.073026247 0.013860582 0.45300001 4285362289
-0.071574636 0.013860582 0.45300001 4285230703
-0.070123024 0.013860582 0.45300001 4285230703
-0.06882301 0.013891181 0.45400003 4285362289
-0.067368187 0.013891181 0.45400003 4285558898
-0.065913372 0.013891181 0.45400003 4285427312
-0.064458564 0.013891181 0.45400003 4285690484
-0.063003741 0.013891181 0.45400003 4285690484
-0.061684497 0.013921778 0.45500001 4285690484
-0.06022647 0.013921778 0.45500001 4285558898
-0.058768455 0.013921778 0.45500001 4285756277
-0.057310436 0.013921778 0.45500001 4285558898
-0.055852409 0.013921778 0.45500001 4285558898
-0.054274842 0.013891181 0.45400003 4285690484
-0.052820031 0.013891181 0.45400003 4285756277
-0.051365212 0.013891181 0.45400003 4285559668
-0.049800459 0.013860582 0.45300001 4285559668
-0.048348844 0.013860582 0.45300001 4285428082
-0.046897233 0.013860582 0.45300001 4285428082
-0.045345303 0.013829986 0.45200002 4285361519
-0.04379978 0.013799389 0.45100003 4284900968
-0.042260662 0.013768791 0.45000002 4284637796
-0.040818661 0.013768791 0.45000002 4284506210
-0.039114155 0.013676999 0.44700003 4284111450
-0.03751317 0.013615805 0.44500002 4284111450
-0 0 0 4282795570
-0 0 0 4282795570
-0.032712441 0.013401624 0.43800002 4284505434
-0.03116593 0.013340428 0.43600002 4285623915
-0.029632239 0.013279234 0.43400002 4294967289
-0.028111368 0.01321804 0.43200001 4294967289
-0.026727049 0.01321804 0.43200001 4294901755
-0.025342731 0.01321804 0.43200001 4294901755
-0.023902953 0.013187442 0.43100002 4294901755
-0.022469584 0.013156844 0.43000001 4294901755
-0.021091674 0.013156844 0.43000001 4294901755
-0.019713765 0.013156844 0.43000001 4294901755
-0.018335855 0.013156844 0.43000001 4294901755
-0.016918506 0.013126248 0.42900002 4294901755
-0.015543803 0.013126248 0.42900002 4294901755
-0.014169097 0.013126248 0.42900002 4294901755
-0.012764568 0.013095651 0.42800003 4294901755
-0.011393067 0.013095651 0.42800003 4294901755
-0.010021566 0.013095651 0.42800003 4294901755
-0.0086500654 0.013095651 0.42800003 4294901755
-0.0072615584 0.013065053 0.42700002 4294901755
-0.0058932621 0.013065053 0.42700002 4294901755
-0.0045249658 0.013065053 0.42700002 4294901755
-0.0031566692 0.013065053 0.42700002 4294901755
-0.0017841846 0.013034456 0.42600003 4294901755
-0.0004190926 0.013034456 0.42600003 4294901755
0.0009459994 0.013034456 0.42600003 4294901755
0.0023110914 0.013034456 0.42600003 4294901755
0.0036761835 0.013034456 0.42600003 4294901755
0.0050412752 0.013034456 0.42600003 4294901755
0.0063913288 0.013003858 0.42500001 4294901755
0.0077532167 0.013003858 0.42500001 4294901755
0.0091151036 0.013003858 0.42500001 4294901755
0.010476992 0.013003858 0.42500001 4294901755
0.011838879 0.013003858 0.42500001 4294901755
0.013200766 0.013003858 0.42500001 4294901755
0.014562654 0.013003858 0.42500001 4294901755
0.015924541 0.013003858 0.42500001 4294901755
0.017286429 0.013003858 0.42500001 4294901755
0.018648317 0.013003858 0.42500001 4294901755
0.020010203 0.013003858 0.42500001 4294901755
0.021372091 0.013003858 0.42500001 4294901755
0.022733979 0.013003858 0.42500001 4294901755
0.024095867 0.013003858 0.42500001 4294901755
0.025517656 0.013034456 0.42600003 4294901755
0.026882749 0.013034456 0.42600003 4294901755
0.028247841 0.013034456 0.42600003 4294901755
0.02961293 0.013034456 0.42600003 4294901755
0.030978024 0.013034456 0.42600003 4294901755
0.032343116 0.013034456 0.42600003 4294901755
0.033708207 0.013034456 0.42600003 4294901755
0.035073303 0.013034456 0.42600003 4294901755
0.036438391 0.013034456 0.42600003 4294901755
0.037803482 0.013034456 0.42600003 4294901755
0.039168578 0.013034456 0.42600003 4294901755
0.040533669 0.013034456 0.42600003 4294901755
0.041898761 0.013034456 0.42600003 4294901755
0.043263853 0.013034456 0.42600003 4294901755
0.044628944 0.013034456 0.42600003 4294901755
0.045994036 0.013034456 0.42600003 4294901755
0.047359128 0.013034456 0.42600003 4294901755
0.048724219 0.013034456 0.42600003 4294901755
0.050089315 0.013034456 0.42600003 4294901755
0.051454403 0.013034456 0.42600003 4294901755
0.052819494 0.013034456 0.42600003 4294901755
0.054184593 0.013034456 0.42600003 4294901755
0.055419281 0.013003858 0.42500001 4294901755
0.056914769 0.013034456 0.42600003 4294901755
0.058279864 0.013034456 0.42600003 4294901755
0.059644956 0.013034456 0.42600003 4294901755
0.061010052 0.013034456 0.42600003 4294901755
0.062521562 0.013065053 0.42700002 4294901755
0.063889854 0.013065053 0.42700002 4294901755
0.065410987 0.013095651 0.42800003 4294901755
0.06709455 0.013156844 0.43000001 4294901755
0.068790935 0.01321804 0.43200001 4294901755
0.070662588 0.013309832 0.43500003 4294901755
0.072387807 0.013371026 0.43700001 4284177496
0.074294709 0.013462818 0.44000003 4284440668
0.076048769 0.013524013 0.44200003 4284966759
0.077990919 0.013615805 0.44500002 4284966759
0.079952285 0.013707597 0.44800001 4285295724
0.081751212 0.013768791 0.45000002 4285493105
0.083193213 0.013768791 0.45000002 4285558898
0.084823295 0.013799389 0.45100003 4285428082
0.086268499 0.013799389 0.45100003 4285559668
0.087713704 0.013799389 0.45100003 4285757047
0.0891589 0.013799389 0.45100003 4286020219
0.090805002 0.013829986 0.45200002 4286151805
0.092253402 0.013829986 0.45200002 4286020219
0.093701817 0.013829986 0.45200002 4285888633
0.095150225 0.013829986 0.45200002 4285691254
0.096598625 0.013829986 0.45200002 4285887863
0.09804704 0.013829986 0.45200002 4285822070
